# .PCD v0.7 - Point Cloud Data file format
VERSION 0.7
FIELDS x y z
SIZE 4 4 4
TYPE F F F
COUNT 1 1 1
WIDTH 1507
HEIGHT 1
VIEWPOINT 0 0 0 1 0 0 0
POINTS 1507
DATA ascii
-0.49185714 0.096083008 1.1631429
-0.42293414 0.09495265 1.1666666
-0.41657966 0.095967598 1.1617144
0.57915527 0.099830329 1.1680001
0.58592361 0.096680015 1.1655999
0.59475738 0.095125973 1.1617777
0.60226977 0.094527297 1.1604
0.62597257 0.096270949 1.1668888
-0.49204579 0.10529759 1.1627142
-0.42218783 0.10494406 1.1670001
-0.41550514 0.10615759 1.1621817
-0.25272271 0.10770975 1.1617501
-0.24508023 0.10540728 1.163125
-0.23483461 0.10732815 1.1646667
-0.22601649 0.10782096 1.1637778
-0.21469471 0.10749387 1.1633334
-0.20568766 0.10716189 1.1628573
0.57657391 0.10636818 1.1670909
0.5847165 0.10567377 1.1630002
0.59371322 0.10591149 1.1600769
0.60640967 0.10698152 1.1609
0.6155495 0.10598988 1.1642501
0.62479335 0.10518675 1.1670909
0.63173223 0.10772797 1.169
-0.49258202 0.11438858 1.1648571
-0.42242905 0.11280802 1.1676668
-0.41519117 0.11420756 1.1630001
-0.40869257 0.11730274 1.1606667
-0.3829625 0.11878502 1.1600001
-0.35376319 0.11594261 1.1600001
-0.34859514 0.11465062 1.1600001
-0.29351908 0.11364774 1.1648571
-0.28601825 0.11276308 1.1672001
-0.25018454 0.1151448 1.1650001
-0.24359149 0.11509427 1.1645
-0.23531333 0.11192447 1.1652501
-0.22437349 0.11327313 1.1657501
-0.21557872 0.11492059 1.1667693
-0.20755903 0.11328664 1.1636667
0.56624216 0.11546041 1.1682
0.57471853 0.11429424 1.1651666
0.58539188 0.11554469 1.1615715
0.59469593 0.11596802 1.1602501
0.60516846 0.11578424 1.161
0.61553782 0.11494712 1.1630001
0.62525147 0.1143163 1.1661818
0.63192886 0.11496003 1.1684
-0.49357209 0.12399341 1.1645715
-0.41286924 0.12437764 1.1663752
-0.40477347 0.12517922 1.1617779
-0.38502175 0.12377463 1.16075
-0.37831128 0.12240265 1.1600001
-0.23474418 0.12040395 1.1656667
-0.21180132 0.12064497 1.1680001
0.55676425 0.12675145 1.1683334
0.56517303 0.12433279 1.1660001
0.57540995 0.12402017 1.1630627
0.58454555 0.12439301 1.1613572
0.59508109 0.1250944 1.1610001
0.60596621 0.12474607 1.1614616
0.61553782 0.12401455 1.163
0.62442678 0.12423643 1.1650835
0.63292742 0.12498086 1.168
-0.49564537 0.13449232 1.164
-0.41237751 0.13373116 1.1686667
-0.40525323 0.13501534 1.1652858
-0.39803469 0.13414511 1.161
0.547378 0.13806903 1.1686667
0.55533296 0.13499431 1.166579
0.56519836 0.13441899 1.1633751
0.57454455 0.13418102 1.1613125
0.58442098 0.13407306 1.160375
0.59466511 0.13405186 1.1601875
0.60552454 0.13416728 1.1611875
0.61531657 0.1343289 1.1625834
0.62424749 0.13457887 1.1647501
0.63434511 0.1352849 1.1676428
-0.49834514 0.14489537 1.16425
-0.40507549 0.14311659 1.1682501
-0.3944988 0.14073294 1.1620001
-0.37572727 0.14307472 1.1600001
0.52864516 0.14932901 1.1685001
0.53590858 0.14740276 1.1669999
0.54481548 0.14477903 1.1656667
0.55472481 0.14488454 1.1623528
0.56373638 0.14297314 1.161091
0.57321948 0.14103174 1.1602001
0.59844446 0.14049073 1.1600001
0.60593909 0.14212087 1.160125
0.6145671 0.14451043 1.1611667
0.62447214 0.14520773 1.1637858
0.63530457 0.14491041 1.1673572
-0.50123161 0.15583028 1.1642858
-0.49974731 0.15160689 1.166
-0.40286332 0.15700671 1.1675
-0.39496788 0.15403239 1.1646668
-0.38173357 0.1557495 1.1678334
-0.37456146 0.15596454 1.1636001
-0.36747348 0.15762743 1.1625
0.4854714 0.15577674 1.1648334
0.49446014 0.15531664 1.164625
0.50197375 0.15523288 1.164
0.51775157 0.15706925 1.168
0.52497154 0.15551642 1.1661251
0.53424352 0.15480891 1.1625295
0.54427803 0.15169509 1.161
0.55193233 0.15082677 1.1600001
0.61749929 0.15420572 1.1604286
0.62562662 0.15483376 1.1632309
0.63580686 0.15562493 1.1669167
0.64214844 0.15850711 1.169
-0.50272256 0.16559166 1.1638751
-0.40485689 0.16554764 1.1686666
-0.39791709 0.16621175 1.1682501
-0.3771795 0.16234374 1.1685001
0.51391244 0.16915751 1.1616668
0.52536976 0.16694103 1.1622223
0.53344113 0.16705066 1.161
0.54159629 0.16891482 1.1600001
0.6191166 0.16374682 1.1600001
0.62536281 0.1653228 1.1620001
0.63517141 0.16585569 1.1657499
0.64233971 0.16649276 1.1684
-0.50345582 0.17559485 1.165143
-0.41231871 0.17665938 1.1685001
-0.40478182 0.17497022 1.1659445
-0.39481252 0.1755996 1.1658126
-0.38887477 0.17635311 1.1665
0.49700245 0.17605796 1.1645
0.50484389 0.1747839 1.1646365
0.51470476 0.17504621 1.1664001
0.52536637 0.17383467 1.1670001
0.53551984 0.17469421 1.1653845
0.5445385 0.17654337 1.1622728
0.55193233 0.17925088 1.1600001
0.6191166 0.17795888 1.1600001
0.62482429 0.17552604 1.1609999
0.63461649 0.17607781 1.164
0.64513397 0.17474152 1.1675454
0.65386665 0.17803754 1.169
-0.50345528 0.18462971 1.1660001
-0.41326731 0.18430977 1.1675001
-0.40514112 0.18529795 1.1628333
-0.39624664 0.18352824 1.1605002
-0.38667402 0.181328 1.1634001
-0.37441933 0.18738887 1.1656001
0.54530036 0.18221211 1.1671429
0.55536526 0.18495293 1.1645001
0.56465745 0.1856907 1.1625556
0.5748859 0.18603219 1.1620002
0.58523977 0.18603219 1.1620002
0.59552914 0.18601203 1.1618751
0.60549074 0.18589199 1.1611251
0.61569542 0.18499151 1.1606363
0.62462842 0.18493254 1.1616
0.63535154 0.18452105 1.1631539
0.64528108 0.18395446 1.1652501
0.65475094 0.18461598 1.1675385
0.66124487 0.18584973 1.169
-0.50364113 0.19446358 1.1660001
-0.41282487 0.19450611 1.16625
-0.40469247 0.19501358 1.1615455
-0.38180342 0.19443424 1.1611999
-0.37479606 0.19347705 1.1634285
-0.36592275 0.19555721 1.1669999
-0.35528469 0.1968901 1.1650001
0.55881858 0.19105783 1.169
0.56460226 0.19081269 1.1675
0.57500619 0.19211471 1.1674999
0.58522063 0.19205257 1.1671251
0.59517354 0.19190872 1.16625
0.60512757 0.19294706 1.1660908
0.61489397 0.19422288 1.1656429
0.62499368 0.19429049 1.1649375
0.63496029 0.19416927 1.1647334
0.64519107 0.19490896 1.1664287
0.65407377 0.19310999 1.1676251
0.66037685 0.19235986 1.169
-0.503479 0.20478624 1.1656252
-0.41301027 0.2043383 1.1680001
-0.40645045 0.20438002 1.164111
-0.38155198 0.20285611 1.1620001
-0.37518334 0.20055486 1.1636667
-0.36505598 0.20116384 1.1672001
-0.35597345 0.20043999 1.1630001
-0.34760255 0.20268153 1.161
0.62912816 0.20147406 1.169
0.6355015 0.20143098 1.16875
0.64214844 0.20147406 1.169
-0.50293911 0.21494165 1.1643751
-0.40504852 0.21531625 1.1678001
-0.39548686 0.21684191 1.165875
-0.38671368 0.21705258 1.1604
-0.35049039 0.2183869 1.1620001
-0.34807542 0.21695904 1.1647501
0.077967614 0.21857485 1.1630001
0.081853658 0.21857485 1.1630001
-0.50172824 0.22535694 1.1645834
-0.40238595 0.22536865 1.1680001
-0.39517429 0.2239496 1.164
-0.3866463 0.22388864 1.1624545
-0.37831128 0.22059503 1.1600001
-0.36860967 0.22097535 1.1620001
-0.3530345 0.22279549 1.1618572
-0.34738788 0.22579624 1.1639999
0.075771131 0.22482215 1.1636363
0.081783272 0.22226959 1.1620001
-0.50067633 0.23520334 1.1647145
-0.49974731 0.23991767 1.166
-0.39932728 0.23759574 1.161
-0.3029041 0.23726831 1.1615001
-0.29577899 0.235704 1.1661818
-0.28716904 0.23549344 1.1661428
-0.5002982 0.24540645 1.1612501
-0.49960446 0.24504161 1.1656667
-0.39949924 0.24546123 1.1615
-0.31067091 0.24813469 1.1680001
-0.30394948 0.24449264 1.1671668
-0.29577294 0.24103165 1.1682501
-0.28700843 0.24142323 1.1669999
-0.25385439 0.24858566 1.1620001
-0.4991585 0.25508136 1.164091
-0.40001521 0.25225386 1.1630001
-0.39598513 0.25582871 1.1645
-0.26145977 0.25615931 1.169
-0.25442567 0.25304046 1.1606668
-0.24717276 0.25354117 1.1600001
0.15571748 0.25677118 1.1600001
0.16386023 0.25510764 1.1612501
-0.49849972 0.26462069 1.1661251
-0.49817908 0.27483386 1.1653751
-0.38308582 0.27817196 1.1666666
-0.37767166 0.27645636 1.164
0.23947337 0.27250993 1.161
0.24593954 0.2763904 1.161
0.25587031 0.27479684 1.1607274
0.2638903 0.27666163 1.1603333
0.27027524 0.27744326 1.1600001
-0.49593696 0.28530309 1.1642727
-0.38426614 0.28493264 1.1680001
-0.37554884 0.28355971 1.1638889
-0.36860967 0.28309852 1.1620001
0.21779652 0.28613931 1.1603334
0.2220404 0.28691795 1.1600001
0.24699205 0.28463218 1.1612222
0.2544553 0.28400522 1.1619285
0.26419875 0.2843172 1.1616877
0.2735998 0.28475061 1.1606154
-0.49212024 0.29206011 1.1633334
-0.48548597 0.29685885 1.1642001
-0.47896829 0.29965729 1.166
0.20825899 0.29811531 1.1600001
0.21502835 0.29662034 1.1608888
0.22439559 0.29206523 1.1606001
0.24801505 0.29330158 1.160125
0.25500968 0.2945129 1.1610833
0.26421317 0.29468235 1.1617502
0.27365392 0.29375729 1.1608462
0.4712666 0.2994003 1.1650001
-0.48167169 0.30069935 1.1600001
-0.4747169 0.30212203 1.1645
-0.46557757 0.30647412 1.1650001
0.20825899 0.30069935 1.1600001
0.21388969 0.30250874 1.1607499
0.22156039 0.30121779 1.1620001
0.25735518 0.30069935 1.1600001
0.26510721 0.30069935 1.1600001
0.27027524 0.30069935 1.1600001
0.46706006 0.30354702 1.161
0.47590965 0.30858433 1.1605
-0.46129054 0.31080922 1.164
-0.45640603 0.31220722 1.1671429
-0.41568995 0.31551188 1.1670001
0.48516592 0.31388971 1.161
0.49507028 0.31637347 1.1630001
0.50569642 0.31871122 1.1654001
0.51505119 0.3215723 1.1642499
0.52483112 0.32374722 1.1645715
0.5349009 0.32580799 1.1635556
0.54499155 0.32650641 1.1644999
0.55448753 0.32675129 1.1653751
0.5646888 0.32742614 1.1650001
0.57474202 0.32862285 1.1643333
0.21953726 0.33702996 1.1650001
0.22249407 0.33594835 1.1635001
0.58413088 0.33423191 1.1634001
0.59429938 0.33486784 1.1620001
0.60933203 0.33602056 1.166
0.61501086 0.33655056 1.1627142
0.62517893 0.33704743 1.1644286
0.63544363 0.33736345 1.1646668
0.64235079 0.33890831 1.1670001
0.77816135 0.33861789 1.166
0.78587812 0.33843774 1.1636
0.79326963 0.33860421 1.1615
-0.40354726 0.34910217 1.1620001
-0.39501199 0.34677655 1.1620001
-0.38768923 0.34751081 1.161
0.63571036 0.34133679 1.1620001
0.64516789 0.34505847 1.1658334
0.65325785 0.3485809 1.16675
0.66298091 0.34990537 1.169
0.68630087 0.34979555 1.1600001
0.6954959 0.34711993 1.1651251
0.70493335 0.3460421 1.1639
0.71479791 0.34504393 1.1643335
0.72282934 0.34585258 1.1641428
0.76898921 0.3446275 1.1600001
0.77562964 0.34253383 1.1632727
0.78201252 0.34063002 1.164
0.79387987 0.34348294 1.1605
-0.41190341 0.35237953 1.1600001
-0.40516692 0.35248241 1.1640002
-0.39443189 0.35276395 1.1664001
-0.38885742 0.35245007 1.1645
0.63720465 0.35237953 1.1600001
0.64619488 0.35486618 1.1653334
0.65411884 0.35349116 1.1636667
0.66560727 0.35282734 1.1651429
0.67401904 0.35166204 1.1633334
0.70499611 0.35009706 1.161
0.71743226 0.35825014 1.1665001
0.72287428 0.35771754 1.169
0.76739621 0.35671565 1.1615
0.77380013 0.35315838 1.164
0.70697296 0.36013156 1.1600001
0.71492022 0.36333913 1.1619999
0.72282541 0.3615959 1.1664001
0.7676034 0.36126566 1.16575
-0.52588338 -0.29030687 1.1780001
-0.51319814 -0.29055327 1.179
-0.52518427 -0.28658378 1.1735001
-0.51595825 -0.28915679 1.1733334
-0.50432497 -0.28465116 1.1733637
-0.49559954 -0.28382823 1.1753334
-0.14157182 -0.28530061 1.179
-0.50146174 -0.2779102 1.1700001
-0.49433365 -0.27535346 1.1734706
-0.48663744 -0.27326205 1.1761667
-0.49166387 -0.26717639 1.1715
-0.48507237 -0.26426357 1.1745
-0.47864947 -0.26144168 1.1780001
-0.48373255 -0.25570422 1.1712501
-0.47694743 -0.25394842 1.1716667
-0.47800517 -0.24924105 1.1700001
-0.47219506 -0.14215146 1.1724001
-0.46501538 -0.14375654 1.1727333
-0.45774093 -0.14126047 1.1715
-0.4745214 -0.13468099 1.1750588
-0.46432167 -0.13464954 1.1776001
-0.45668486 -0.13460067 1.1735715
-0.48061141 -0.12283618 1.1700001
-0.47815377 -0.12603027 1.1755002
-0.4606714 -0.12772056 1.179
-0.45523232 -0.12599014 1.175125
-0.44933599 -0.12804875 1.1700001
-0.48094469 -0.11540888 1.174
-0.47885263 -0.11847758 1.1785001
-0.45426083 -0.11429598 1.176
-0.48140544 -0.10504991 1.1751251
-0.4535284 -0.10657525 1.1775
-0.48155871 -0.0946097 1.1755002
-0.48122579 -0.084670059 1.175143
-0.48118952 -0.075630032 1.1741428
0.55849987 -0.075232118 1.1745
0.56025267 -0.0721367 1.1720001
-0.48079064 -0.065701231 1.173625
0.55870807 -0.065890312 1.177
0.56095994 -0.066120349 1.1711429
0.59578466 -0.066801034 1.1700001
0.60043669 -0.067029409 1.174
-0.48079064 -0.055242956 1.173625
-0.44602141 -0.051381964 1.1750001
-0.3874588 -0.051425688 1.176
0.5582909 -0.054642811 1.1747499
0.56025267 -0.059082996 1.1720001
-0.48130277 -0.044832658 1.1748751
-0.44488263 -0.044722807 1.1720001
-0.3874588 -0.046186384 1.176
0.55748689 -0.044817425 1.1744375
0.60530239 -0.043467138 1.1732857
0.61035478 -0.041016724 1.1780001
-0.48263121 -0.034493968 1.1742222
-0.44678056 -0.033116266 1.177
0.55688328 -0.034394126 1.1759167
0.5633536 -0.033182837 1.1716666
0.59644091 -0.031836919 1.1712857
0.60468251 -0.034355372 1.174625
0.61035478 -0.034456454 1.1780001
-0.48390192 -0.024462517 1.1752857
-0.44264925 -0.027777785 1.1730001
-0.33318046 -0.02488406 1.1751251
-0.32727173 -0.026945518 1.1746668
0.55743384 -0.026145669 1.178
0.56484151 -0.024244756 1.1761249
0.5745874 -0.023884982 1.1746249
0.58476883 -0.0244419 1.1744286
0.59517348 -0.025550609 1.1758751
0.60406893 -0.026822418 1.177
-0.48523924 -0.015474909 1.174
-0.35681283 -0.019887883 1.1700001
-0.3302916 -0.019938879 1.1730001
0.61403251 -0.012760393 1.17375
-0.48643324 -0.0055734529 1.1746252
0.60931849 -0.0042719631 1.176
0.61370963 -0.0058686584 1.1728462
-0.48785439 0.0050714696 1.174
-0.44153684 0.0062119202 1.177
-0.43891492 0.0088337995 1.177
0.61482471 0.0022809177 1.1765001
0.62347531 0.0035930914 1.1780001
-0.48899764 0.015357761 1.1745
-0.43630457 0.019206405 1.1700001
-0.49023926 0.027126098 1.1743333
-0.48962188 0.021924552 1.1760001
-0.49091625 0.034928873 1.1728334
-0.43406895 0.032265387 1.171
-0.49088147 0.044068903 1.1727501
-0.43356371 0.044131558 1.1743335
-0.42866883 0.046592865 1.1705
-0.29783872 0.048243821 1.179
-0.49020448 0.054588005 1.17425
-0.43357909 0.054707006 1.1767501
-0.42877015 0.05527699 1.1722
-0.29258603 0.050870158 1.179
-0.2899597 0.050870158 1.179
0.61560303 0.058699328 1.1780001
0.62399065 0.058624584 1.1765001
-0.49010012 0.065038003 1.174
-0.48956111 0.064001828 1.179
-0.4344081 0.062688664 1.179
-0.42791504 0.064927205 1.1720001
0.60681993 0.065837681 1.1766667
0.61504692 0.064647779 1.1740001
0.62448001 0.063124381 1.1725001
0.63582969 0.065565199 1.1717501
0.64562225 0.067207731 1.176
0.65051669 0.068725839 1.1700001
-0.49020448 0.075515702 1.1742501
-0.4283835 0.073379405 1.1715001
-0.3214393 0.078660369 1.1756667
-0.31427428 0.078287944 1.176625
-0.23178649 0.079624534 1.177
-0.22672065 0.077930972 1.1752
0.59803712 0.079624534 1.177
0.60507774 0.077418342 1.1754
0.61193824 0.074313119 1.1760001
0.63659221 0.074079663 1.1722
0.64264452 0.074234061 1.1746668
0.65703046 0.071758896 1.177
-0.49084666 0.085859336 1.1726668
-0.43630457 0.08175727 1.1700001
-0.32245269 0.081966907 1.1730001
-0.31553471 0.083933137 1.172111
-0.30991536 0.082106657 1.1750001
-0.23178649 0.082246415 1.177
-0.22916462 0.082246415 1.177
0.58654851 0.087861426 1.1750001
0.5943042 0.083909877 1.1736363
0.60255718 0.081792206 1.1705
0.635827 0.085662559 1.1748182
0.64297521 0.086225443 1.1776667
-0.49133733 0.094387427 1.1742858
-0.42769942 0.0978112 1.1750001
-0.29665759 0.0977557 1.1743333
0.56885159 0.098144174 1.179
0.57551074 0.095448457 1.1756923
0.58191139 0.09333536 1.17225
0.6359672 0.094950728 1.1720001
0.64543718 0.0946633 1.1777143
-0.49182296 0.10435477 1.1750001
-0.43301597 0.10453183 1.1770002
-0.42669845 0.10410969 1.17225
-0.30172029 0.10554431 1.1736667
-0.2972258 0.10449751 1.1765834
-0.28774628 0.10782013 1.1700001
0.55787271 0.10855737 1.1780001
0.56539136 0.10538361 1.1753531
0.57299268 0.10198941 1.1719
0.63595694 0.10369164 1.1715455
0.64475363 0.10445286 1.176125
0.65026796 0.10733634 1.179
-0.49230927 0.11433195 1.1757144
-0.42520037 0.11617354 1.1753334
-0.41913253 0.11854846 1.1730001
-0.30206308 0.11089832 1.1750001
-0.29877073 0.11113427 1.1775
-0.25190252 0.11332253 1.1730001
-0.24672832 0.11367469 1.17325
-0.23391706 0.11761121 1.1723334
-0.22609662 0.11652385 1.1701667
0.54868716 0.11905377 1.178
0.55542481 0.11537196 1.1751179
0.56304455 0.11262354 1.1717778
0.63683528 0.11386049 1.1708572
0.64544731 0.11482278 1.1750001
0.65270966 0.11649481 1.1786667
-0.49337462 0.12600464 1.1735001
-0.42425755 0.12493019 1.1768571
-0.41859657 0.12492371 1.1715
0.53893381 0.12874807 1.1786667
0.54570097 0.12586871 1.1758126
0.55371392 0.12364367 1.1717693
0.63748521 0.12345785 1.1700001
0.64411926 0.12503487 1.1725835
0.65399694 0.12605223 1.1772
-0.49488324 0.13570523 1.1745
-0.42330351 0.13472287 1.1773334
-0.41715556 0.13589171 1.1723334
0.52878296 0.13867514 1.1775
0.53549528 0.13637428 1.175647
0.54438013 0.13445023 1.1719334
0.55147779 0.1312767 1.1700001
0.64473706 0.13534038 1.1713334
0.65410012 0.13529713 1.1755
0.66049302 0.13616769 1.1785001
-0.49725464 0.14556566 1.1741428
-0.42205322 0.14392112 1.1775001
-0.41355571 0.1458604 1.1719999
-0.40593868 0.14831173 1.1707501
0.5055328 0.1479608 1.1783334
0.51631856 0.14743231 1.1767501
0.52482343 0.14495887 1.1742105
0.53401446 0.14345244 1.171
0.64590329 0.14574581 1.1710833
0.65579814 0.14529854 1.175375
0.66180623 0.14404503 1.1785001
-0.50055587 0.15787579 1.174
-0.49902201 0.15277877 1.1750001
-0.42082977 0.15444727 1.17775
-0.41441756 0.15469955 1.1737001
-0.4049845 0.1537752 1.1715556
-0.39510599 0.15623397 1.1715001
-0.38699234 0.15611935 1.170625
0.48798326 0.15264708 1.174
0.4958252 0.15166387 1.174
0.50558537 0.15155122 1.1731249
0.51468486 0.15276359 1.1730908
0.52020234 0.152127 1.1700001
0.64625198 0.15455627 1.1711249
0.65610224 0.15412951 1.1753334
0.66325891 0.15457672 1.17875
-0.50180131 0.16501619 1.1742858
-0.42161551 0.1657794 1.1775
-0.41387939 0.16426198 1.1729168
-0.40520334 0.16262048 1.1705
-0.39387795 0.16432087 1.1714668
-0.38473898 0.16588822 1.1733
-0.37372646 0.165848 1.1733335
-0.36526573 0.16671391 1.1748334
0.64718866 0.16339539 1.1707144
0.65531141 0.16440222 1.1739167
0.66426659 0.16590619 1.1776251
-0.50245368 0.17508148 1.1753751
-0.42411867 0.17622097 1.1771667
-0.41672412 0.17406942 1.1721001
-0.39346835 0.17044379 1.1705
-0.38461769 0.17480305 1.1729333
-0.37482569 0.17459045 1.175
-0.36495474 0.1753559 1.1765385
-0.35909843 0.17539927 1.1775
-0.33113629 0.17910363 1.176
-0.32499617 0.17933208 1.1775
-0.31699756 0.17663406 1.177
0.52444857 0.17830408 1.17075
0.53062749 0.17818984 1.1700001
0.64791042 0.17037098 1.1700001
0.65515423 0.17369051 1.1713001
0.66469902 0.17492366 1.1743333
0.67391849 0.17643625 1.1778749
-0.50250697 0.18557385 1.1755002
-0.42474255 0.18609722 1.1755
-0.41832858 0.18482202 1.17075
-0.38233057 0.18115671 1.1723334
-0.37379441 0.18471718 1.176
-0.36496329 0.18552963 1.1743333
-0.35619026 0.18769301 1.1751111
-0.34887952 0.18664461 1.174
0.49886417 0.18156876 1.1750001
0.50485152 0.1842043 1.1750909
0.51467925 0.18407272 1.17425
0.5251227 0.18421835 1.1751819
0.53530556 0.18443005 1.1741428
0.54433662 0.18720073 1.1730001
0.55147779 0.18861499 1.1700001
0.66605616 0.18463349 1.1712
0.67470372 0.18495396 1.1749001
0.68202448 0.18774089 1.1776
-0.50235862 0.1953551 1.1747143
-0.42468306 0.19553155 1.1745455
-0.41806057 0.19513071 1.1700001
-0.36283168 0.19195457 1.1705
-0.35500026 0.19295511 1.1726249
0.51501167 0.19006588 1.179
0.52157754 0.19006588 1.179
0.53602242 0.19006588 1.179
0.54582959 0.19244705 1.1775
0.55488199 0.19442731 1.1749166
0.56499827 0.19535801 1.1722224
0.57526511 0.19742744 1.1728001
0.58436954 0.19828822 1.1732501
0.59505212 0.1983158 1.1725554
0.60495067 0.19879107 1.1716
0.6127255 0.19904013 1.1700001
0.65680224 0.19851615 1.17075
0.66598803 0.19546704 1.1719999
0.67473859 0.19495943 1.1745714
0.68202448 0.19456267 1.1776001
-0.50197285 0.20499158 1.17425
-0.42520985 0.20436059 1.1762501
-0.41758886 0.20609847 1.1716001
-0.34306371 0.20982333 1.1720001
-0.33520684 0.20669699 1.1765
-0.32559749 0.20713496 1.1765
-0.31646115 0.207743 1.1750001
0.56443125 0.2004011 1.178
0.574687 0.20162918 1.1774999
0.58542579 0.20302519 1.1780001
0.59566814 0.20293902 1.1775
0.60564548 0.20364173 1.1765001
0.61538309 0.20448931 1.1750834
0.62492573 0.20534752 1.17375
0.63513172 0.20606278 1.172875
0.64518607 0.20487477 1.1718888
0.65479398 0.20505145 1.1745555
0.66406631 0.20470323 1.1768571
0.67435998 0.20162807 1.1775
-0.50112122 0.21568987 1.1741002
-0.42175388 0.2144634 1.1774001
-0.41466269 0.21487707 1.1726668
-0.34262723 0.21191399 1.17275
-0.33436206 0.21347924 1.1764545
-0.32517502 0.21238536 1.1765556
-0.31652007 0.21301134 1.173143
0.62925726 0.21107653 1.179
0.63528383 0.21089752 1.1780001
0.64509583 0.21067373 1.1767501
0.65234053 0.21089752 1.1780001
-0.50029147 0.22389095 1.1746
-0.4995009 0.22657728 1.1776667
-0.41454911 0.22448333 1.1763
-0.40752116 0.22421706 1.1721667
-0.3438167 0.22537974 1.1727999
-0.33490267 0.22352324 1.1754168
-0.32599768 0.22129597 1.174
-0.49930382 0.23504981 1.1741251
-0.41154242 0.23560484 1.1782
-0.40717578 0.23512329 1.1772858
-0.49877223 0.24525033 1.172875
-0.40779859 0.24369997 1.178
-0.30292577 0.24806733 1.17075
-0.29533899 0.24678305 1.1725554
0.17632318 0.24616347 1.171
-0.49786982 0.25526598 1.175375
-0.40551838 0.25835055 1.179
-0.31173483 0.2515952 1.1720001
-0.30385381 0.25335711 1.1756251
-0.29500973 0.25535607 1.1761
-0.2857165 0.25545201 1.1777501
-0.27554223 0.25536361 1.1760001
-0.26422936 0.25338805 1.1767
-0.49716416 0.26537859 1.1752501
-0.40282375 0.26408425 1.1788
-0.39620718 0.26544112 1.1732
-0.38972422 0.26964009 1.171
-0.49635017 0.2754392 1.174875
-0.40026575 0.27542174 1.179
-0.39413497 0.27435097 1.1744168
-0.38638151 0.27545059 1.17075
-0.49405292 0.28473386 1.1740835
-0.48956111 0.28986657 1.179
-0.395145 0.28495389 1.1767778
-0.3896133 0.28521073 1.1706667
-0.49145624 0.29050821 1.171
-0.48486614 0.29446793 1.174
-0.47501007 0.29849648 1.1755
-0.39348668 0.29279518 1.1760001
-0.38581884 0.29165816 1.1730001
-0.47209334 0.30107075 1.1715
-0.46459115 0.30307415 1.1746154
-0.45549062 0.30684534 1.1743573
-0.44565484 0.30784467 1.1765455
-0.43494192 0.30840838 1.1776
-0.42915541 0.30562457 1.179
0.47218692 0.30772802 1.177
-0.45219836 0.3112877 1.1706667
-0.44473806 0.31284621 1.1716251
-0.43536705 0.3123793 1.1738
-0.42557707 0.31400818 1.1751667
-0.41592368 0.31341919 1.1728001
0.49533054 0.31298688 1.174889
0.50356328 0.31569844 1.17375
0.51429558 0.31782827 1.1743751
0.52244836 0.31848586 1.178
0.52545494 0.32105133 1.1730001
0.53533661 0.32247439 1.174625
0.54444009 0.32407799 1.1745001
0.55430418 0.3244915 1.176
0.56500399 0.3260709 1.1732001
0.57359344 0.32731825 1.1758001
0.58636487 0.33214492 1.1762002
0.59416908 0.33405074 1.1734287
0.60337943 0.33550408 1.1763334
0.61448032 0.33623999 1.1758572
0.62560725 0.33524621 1.1754445
0.6351667 0.33676365 1.1761667
0.64343244 0.33755755 1.1713334
0.71620238 0.33803785 1.1730001
0.72257745 0.33919057 1.177
0.78092176 0.33947876 1.1780001
0.64759535 0.34180894 1.171
0.65519094 0.34490526 1.1726668
0.66573554 0.34811917 1.1761668
0.67544591 0.34891558 1.1762
0.6847629 0.34886521 1.1778001
0.69514185 0.34590626 1.1745833
0.70552504 0.34288347 1.1735001
0.71465689 0.3411831 1.1733333
0.72691375 0.34378457 1.173
0.73464066 0.34392118 1.176375
0.74093062 0.34705621 1.177
0.77542472 0.34306645 1.1723334
0.78155047 0.34123161 1.1750001
-0.40348855 0.35771546 1.1718334
-0.39544606 0.35682994 1.1725001
-0.38712937 0.35431874 1.1750001
0.6666913 0.35227373 1.1739999
0.67454612 0.35050404 1.1710001
0.68732166 0.35170129 1.1750001
0.69179821 0.35065371 1.1715001
0.73572218 0.35756794 1.1758573
0.77448696 0.35729799 1.1762
0.78149825 0.35311255 1.171
-0.40519166 0.36193985 1.17425
-0.39759904 0.36217102 1.1750001
0.72891283 0.36594594 1.1703334
0.73332256 0.36554256 1.1714286
0.76846325 0.36217102 1.1750001
0.77173692 0.36116832 1.1760001
-0.092255183 -0.42719668 1.1865001
-0.088252857 -0.42701668 1.1860001
-0.52940476 -0.29079974 1.1800001
-0.51163375 -0.29190871 1.1845
-0.50539315 -0.29211408 1.1853334
-0.15204273 -0.29566628 1.189
-0.14939411 -0.29566628 1.189
-0.14520812 -0.28818819 1.1836667
-0.55206478 -0.2735256 1.1877501
-0.54629976 -0.27428153 1.1843334
-0.47157642 -0.13045746 1.1800001
-0.46820411 -0.1313705 1.1803334
-0.4734782 -0.12340923 1.1822308
-0.46510327 -0.12408478 1.1819167
-0.47530657 -0.11432684 1.1848125
-0.46621394 -0.11398526 1.1864167
-0.45869264 -0.11562707 1.1806668
-0.47753391 -0.10600225 1.1848
-0.4621655 -0.10834404 1.1873335
-0.45604414 -0.10467669 1.18575
-0.48027474 -0.095132843 1.182
-0.4783887 -0.095544353 1.187125
-0.48027474 -0.084600776 1.182
-0.47853994 -0.084994443 1.1875
-0.47888175 -0.074262209 1.1850834
0.55595547 -0.072942704 1.1851112
0.64797306 -0.07538522 1.182
0.65323913 -0.07538522 1.182
-0.47871363 -0.06499996 1.1846666
0.55616367 -0.065048486 1.1855557
0.60664767 -0.067429073 1.1810001
-0.47871339 -0.055762377 1.1846668
-0.45322067 -0.055872943 1.187
-0.44905815 -0.055684663 1.1830001
0.55481315 -0.055735007 1.1840833
-0.48041019 -0.043800622 1.1823335
-0.4791204 -0.04656418 1.1856667
0.54937655 -0.042688102 1.1880001
0.55252486 -0.04516153 1.1834168
0.6163612 -0.042562895 1.1845
0.62135142 -0.041399729 1.189
-0.48110545 -0.034510285 1.1847777
-0.45057648 -0.03868594 1.187
-0.44981733 -0.035981055 1.1850001
0.54769707 -0.033864655 1.1864547
0.55211174 -0.035083845 1.1814001
0.61686033 -0.034046683 1.1832858
0.62360758 -0.033431128 1.1882501
-0.4828108 -0.02409962 1.1850001
-0.44829896 -0.020074865 1.1810001
0.54637229 -0.02421874 1.1864667
0.55357999 -0.022921782 1.1817693
0.5614484 -0.020057866 1.1800001
0.58773404 -0.020057866 1.1800001
0.5954982 -0.020597178 1.1808001
0.60586542 -0.021991376 1.1831429
0.6150493 -0.023692071 1.1834286
0.62543577 -0.024679773 1.1872
-0.4842281 -0.014855232 1.1841668
-0.44829896 -0.014813284 1.1810001
0.54615331 -0.0151638 1.1879001
0.55523771 -0.015067627 1.1853077
0.5653879 -0.014843206 1.1836666
0.57497609 -0.0148413 1.1835001
0.58453935 -0.014848739 1.1841819
0.59472567 -0.014624803 1.1853637
0.60517162 -0.015121193 1.1865455
0.61519992 -0.015308984 1.1856667
0.6290226 -0.013527019 1.1835001
0.63139218 -0.012203126 1.1830001
-0.48560396 -0.0056244768 1.1853752
0.54719031 -0.0096164076 1.189
0.5564605 -0.0096164076 1.189
0.56440628 -0.0096164076 1.189
0.57235217 -0.0096164076 1.189
0.59751391 -0.0096164076 1.189
0.60413545 -0.0096164076 1.189
0.61466068 -0.0060811806 1.1863333
0.62770718 -0.0048326654 1.1860001
0.63226199 -0.0052929465 1.18525
-0.48719576 0.0054924861 1.1832858
-0.44603845 0.0089238631 1.189
0.49172422 0.006243587 1.1830001
0.61715961 0.0049264333 1.1826668
0.6273551 0.0018606288 1.1886667
0.63141435 0.00097721035 1.1880001
-0.48839638 0.014930859 1.1852858
-0.44115242 0.014153776 1.1830001
0.48908895 0.01941981 1.1830001
-0.49039161 0.029910138 1.1810001
-0.48972082 0.025220633 1.1832001
-0.4396292 0.026074989 1.1860001
0.49304181 0.022055056 1.1830001
-0.49031523 0.035261061 1.1840001
-0.48982584 0.030036768 1.1860001
-0.43999988 0.030062092 1.187
-0.4903152 0.044492211 1.184
-0.44189823 0.044528116 1.1850001
-0.43740511 0.048284743 1.1800001
-0.29546279 0.048284743 1.1800001
-0.49039161 0.050956454 1.1810001
-0.4898313 0.055571683 1.1832858
-0.44245759 0.055161107 1.1865001
-0.4379611 0.054928668 1.1815001
0.61688048 0.057753205 1.1855001
0.62546337 0.056372739 1.18425
-0.4895255 0.066380553 1.184
-0.44338983 0.063220367 1.189
-0.43788806 0.066451564 1.1836667
0.60394633 0.065911353 1.1850001
0.6103102 0.069489457 1.1830001
0.65372503 0.068027213 1.1805
-0.49039161 0.079895139 1.1810001
-0.48990107 0.074759953 1.1830001
-0.44074121 0.07513912 1.189
-0.43700355 0.074181803 1.1842501
-0.33047214 0.077395193 1.1830001
-0.3263818 0.077362478 1.1825001
0.59725738 0.078068689 1.1832501
0.60396606 0.073929206 1.1837778
0.61139107 0.0719418 1.1800001
0.64832401 0.076751277 1.1812001
0.655662 0.07449457 1.184
0.66111749 0.075723357 1.1843334
-0.49042264 0.084669702 1.1847143
0.57635045 0.087301821 1.1863333
0.58449531 0.084416054 1.1840911
0.59236157 0.080755793 1.1840001
0.6489234 0.085180007 1.1813334
0.65496767 0.084133737 1.185125
-0.49103993 0.094744846 1.18575
-0.43214798 0.098227419 1.1800001
-0.29045159 0.098310664 1.1810001
-0.28519002 0.098310672 1.1810001
-0.27992845 0.098310664 1.1810001
0.55996203 0.098893367 1.1880001
0.56620306 0.095822379 1.1853077
0.57335037 0.091548666 1.1828752
0.64819092 0.090341732 1.1800001
0.65472519 0.09503451 1.1838889
0.66089529 0.09365239 1.1886667
-0.49174106 0.10517711 1.18425
-0.43664575 0.10887991 1.1815001
-0.29188368 0.10429917 1.1807144
-0.28448948 0.10528216 1.1824669
0.54864776 0.10862675 1.1883334
0.55548614 0.10574298 1.1837335
0.5622794 0.1016627 1.1817501
0.65547323 0.10451145 1.1826999
0.66358906 0.10628392 1.1878
0.82891798 0.10290623 1.1885
0.83483225 0.10561975 1.188077
0.84203798 0.10686323 1.1883334
-0.49232906 0.11653252 1.1844001
-0.44074121 0.11751688 1.189
-0.43514812 0.11543456 1.1849091
-0.42988342 0.1140954 1.1810001
-0.2930809 0.11146461 1.1810001
-0.28195822 0.11174775 1.184
0.53856421 0.11869071 1.1875
0.54501134 0.11572795 1.184278
0.55196595 0.11227787 1.1803335
0.65681869 0.11544263 1.1813334
0.66481119 0.11591829 1.1862001
0.84251034 0.11221965 1.189
-0.49290332 0.12562774 1.1834286
-0.43278322 0.12507655 1.1853334
-0.42689088 0.12977016 1.1800001
0.52820545 0.12800358 1.1880001
0.53498518 0.12544006 1.1844119
0.54160136 0.12282952 1.1806667
0.6589843 0.1232504 1.1805
0.66487563 0.12585543 1.1833751
0.6722821 0.12431885 1.1882001
0.77749377 0.12694503 1.1880001
0.78204137 0.12694262 1.1863334
-0.49385533 0.13440974 1.1861668
-0.43307215 0.13440748 1.186125
-0.4271321 0.13510431 1.1806668
0.51850522 0.13847244 1.187
0.5254398 0.13457674 1.1842353
0.53153032 0.13170731 1.1816667
0.6661551 0.13382928 1.1823335
0.67424256 0.13505553 1.1868572
0.77655119 0.13295236 1.187875
0.78176725 0.13166738 1.18525
-0.49585217 0.14479631 1.184625
-0.4325971 0.14429048 1.187
-0.42701635 0.1452374 1.1818001
0.49693292 0.14892349 1.1860001
0.5049274 0.14608747 1.1844444
0.51491588 0.14284879 1.1834545
0.52114582 0.1404033 1.181
0.66637379 0.14349312 1.1811668
0.67555213 0.14502081 1.1865001
-0.49854377 0.15536802 1.1847501
-0.43270442 0.15588976 1.18875
-0.42657065 0.15510297 1.1827501
-0.28231996 0.15868433 1.1800001
-0.27861303 0.15881881 1.1810001
0.48774257 0.15570192 1.184
0.4921332 0.15263191 1.184
0.6670146 0.15483902 1.1807501
0.67479324 0.15541811 1.1851667
0.68226945 0.15989463 1.189
-0.50088197 0.16567737 1.1830001
-0.49997163 0.16199644 1.1850001
-0.43206742 0.16623217 1.187
-0.42679819 0.16468094 1.1821667
-0.37187737 0.16519186 1.189
-0.29184908 0.16532633 1.1824001
-0.28477821 0.16603203 1.1836668
-0.2759051 0.16525684 1.1842728
0.66853231 0.16398777 1.1803334
0.67498934 0.16570167 1.1832001
0.68252516 0.16552575 1.1876001
-0.50128156 0.17450346 1.1854286
-0.43296596 0.17399384 1.1858333
-0.428009 0.17543121 1.1806668
-0.38483387 0.17182715 1.1800001
-0.36148292 0.17986514 1.1810001
-0.35854825 0.17971283 1.1800001
-0.31254843 0.17577 1.1800001
-0.29236323 0.1739089 1.1807501
-0.28442326 0.17425284 1.1822001
-0.27450806 0.17270085 1.1860001
0.67718458 0.17294677 1.1816669
0.68466979 0.17492241 1.1848181
0.6912483 0.17571127 1.1885
-0.50123596 0.18441343 1.1848751
-0.4359138 0.18601461 1.1866666
-0.42951941 0.18365568 1.1800001
-0.37340942 0.18187581 1.1826668
-0.36609277 0.18611589 1.1806
-0.35753781 0.18249594 1.181
-0.32720649 0.18055049 1.1855001
0.49540189 0.18663098 1.181
0.50099146 0.18759851 1.1800001
0.68690544 0.1837773 1.182
0.69471174 0.1846651 1.1865002
0.70080972 0.18902935 1.189
-0.50097167 0.19486871 1.18425
-0.43467891 0.19402289 1.1845001
0.48862323 0.19263023 1.184
0.49543181 0.19490246 1.1855716
0.50491261 0.19471705 1.1837648
0.5150727 0.19601162 1.1831667
0.52566534 0.19499747 1.1827143
0.53472781 0.19531192 1.1829168
0.54436797 0.19692066 1.1823001
0.55248189 0.19819672 1.1805
0.6875599 0.19509104 1.1808001
0.69405413 0.19487011 1.1842501
0.70022035 0.19548634 1.1880001
-0.50074106 0.20426612 1.1826668
-0.49997163 0.20819119 1.1850001
-0.43418834 0.20523626 1.1831667
-0.42970142 0.20740116 1.1805
-0.34306738 0.20880383 1.1810001
0.49672708 0.20354001 1.1886667
0.50595212 0.20390558 1.1882223
0.51489335 0.20471935 1.1878183
0.52459657 0.20499086 1.188
0.53476548 0.20340504 1.187875
0.54500341 0.2032766 1.1871251
0.55509162 0.204033 1.1850001
0.56512427 0.20552313 1.1833
0.57437831 0.20773718 1.1839001
0.58477992 0.20767842 1.1831429
0.59424466 0.20775393 1.1825002
0.60407746 0.20820437 1.1818572
0.61296439 0.20871542 1.1805
0.66555905 0.20871542 1.1805
0.67430359 0.20766522 1.182
0.68441105 0.20494427 1.1835456
0.69442713 0.20460255 1.187143
0.70080972 0.2022724 1.189
-0.50049061 0.21256986 1.1800001
-0.49937892 0.2157767 1.1862859
-0.43407577 0.21351252 1.1862859
-0.42627269 0.21568191 1.1812
-0.3524456 0.21761362 1.1860001
-0.34892178 0.21788883 1.1875
-0.33719879 0.21846917 1.1835001
-0.32700551 0.21738888 1.1800001
-0.3159906 0.21798059 1.1880001
0.47700214 0.21816406 1.189
0.48097506 0.21816406 1.189
0.56292343 0.2101593 1.1886667
0.57487905 0.21282208 1.18875
0.58510268 0.21268782 1.1880001
0.59531134 0.21255355 1.18725
0.60534066 0.21369505 1.1872858
0.61512351 0.21446185 1.1858182
0.62436092 0.21458359 1.1838334
0.63436019 0.21586132 1.1836251
0.64426816 0.21558511 1.1831429
0.65539163 0.21540187 1.1851112
0.66462392 0.21462186 1.1858751
0.67458773 0.21367522 1.1876001
0.68462896 0.21145412 1.1885
0.69021529 0.21021824 1.189
-0.49864084 0.22467397 1.1854286
-0.43243143 0.22062697 1.1880001
-0.42586395 0.22436492 1.1844444
-0.41900519 0.22702694 1.1800001
-0.35127211 0.22034839 1.1865001
-0.34539869 0.22129162 1.1845001
-0.32372192 0.22181088 1.1872501
0.47651652 0.22491162 1.188889
0.48338288 0.22514676 1.189
0.6292972 0.22081266 1.189
0.63551688 0.2206734 1.1882501
0.6448279 0.22068886 1.1883334
-0.49822819 0.23438911 1.184
-0.42320818 0.23483703 1.1862501
-0.41687155 0.23466519 1.1814001
0.47567785 0.23273142 1.189
0.48296154 0.23206925 1.189
-0.49775466 0.24470641 1.182875
-0.42184591 0.24444591 1.1880001
-0.41513842 0.24515091 1.1832727
-0.40849093 0.24805544 1.1800001
-0.49743789 0.25470144 1.184
-0.4151898 0.25484642 1.1857778
-0.40926984 0.25511432 1.1822501
-0.32326499 0.25714764 1.1855714
-0.31564158 0.25753289 1.1838572
-0.30682975 0.25807634 1.1807501
-0.29188997 0.25100267 1.1815001
-0.28699058 0.25132135 1.1830001
-0.27517688 0.25289825 1.1815716
-0.26932922 0.25345421 1.1806667
-0.4963876 0.26575372 1.1827501
-0.41393489 0.26475769 1.1871252
-0.40689597 0.26660353 1.183
-0.31863695 0.26032272 1.1880001
-0.49475417 0.27480718 1.182
-0.41228095 0.27467579 1.187125
-0.40472093 0.2755909 1.182143
-0.49250695 0.2847583 1.1842858
-0.48759171 0.28918925 1.1870002
-0.41262794 0.28549379 1.1881251
-0.4045639 0.28466535 1.1831819
-0.48382118 0.29214472 1.1842501
-0.4750565 0.29560101 1.1841
-0.46506548 0.29808566 1.1850001
-0.45542452 0.29888302 1.1869999
-0.44793233 0.29976591 1.187
-0.41137576 0.2948091 1.1883334
-0.404818 0.29461035 1.1854002
-0.39898849 0.29612049 1.1830001
-0.4625718 0.30075407 1.1805
-0.45458621 0.30219027 1.1817144
-0.44410232 0.30261481 1.1838462
-0.43536973 0.3042784 1.184
-0.42476523 0.30700848 1.1859231
-0.41438684 0.30560514 1.1871002
-0.40577471 0.30467376 1.1848667
-0.39831397 0.30351225 1.1810001
0.47454029 0.30638814 1.1845001
0.48118323 0.30402622 1.1830001
0.49962994 0.30929673 1.1830001
-0.42438218 0.31122884 1.1803334
-0.41597846 0.31159028 1.1831429
-0.40786791 0.31166828 1.1820002
0.5059827 0.31251946 1.184
0.51518416 0.31406572 1.1844444
0.52510589 0.31634682 1.1847501
0.5340355 0.31848881 1.1850002
0.54321742 0.31881127 1.189
0.53961432 0.32010803 1.184
0.54531419 0.32141855 1.1832857
0.55489898 0.32187703 1.1856667
0.56358635 0.32341608 1.1837143
0.57407486 0.32493874 1.1851429
0.58461237 0.32819057 1.187
0.58552331 0.33051831 1.1835001
0.59566301 0.33194599 1.1845715
0.60600883 0.33367512 1.1843333
0.61564392 0.33458471 1.1845715
0.62621242 0.33288169 1.1856667
0.63522685 0.33331177 1.18525
0.64479923 0.33551291 1.1844002
0.65554142 0.33801198 1.1876001
0.71681792 0.33942822 1.187
0.72475034 0.33942822 1.187
0.73563784 0.33957121 1.1875
0.74785525 0.3397142 1.1880001
0.75579441 0.3397142 1.1880001
0.76108712 0.3397142 1.1880001
0.65753794 0.34149605 1.1850001
0.66490495 0.34387121 1.1863749
0.67554945 0.34702766 1.1836251
0.68608969 0.34608865 1.1841668
0.69492888 0.34479335 1.1842501
0.70124662 0.3408922 1.1875
0.7134949 0.34048742 1.1815001
0.72951233 0.34120783 1.184
0.73257649 0.3411451 1.1815001
0.74451345 0.3425377 1.1845556
0.75393385 0.34127286 1.1868572
0.78487617 0.34005511 1.1800001
0.73943716 0.35146064 1.1830001
0.74019057 0.3531979 1.1800001
0.7768321 0.35605898 1.1846668
0.78127068 0.35190237 1.1845001
0.76972401 0.36261362 1.1850001
0.7721985 0.36121613 1.1847501
-0.13528034 -0.43485206 1.1930001
-0.12127084 -0.43169725 1.199
0.28762639 -0.37400985 1.1956002
0.29585442 -0.37384394 1.1955001
0.30238786 -0.37169364 1.1950001
0.24767449 -0.3638908 1.1956002
0.25461203 -0.36923754 1.1956667
0.26301718 -0.36795083 1.1915001
0.29622787 -0.36964929 1.197
0.30022752 -0.36964929 1.197
0.24761494 -0.3549082 1.1956251
0.25305751 -0.35720643 1.19775
-0.57303083 -0.29232281 1.197
-0.56642181 -0.29527828 1.196
-0.53947276 -0.29353392 1.1965001
-0.15213577 -0.29313168 1.1966667
-0.14797971 -0.2954821 1.199
-0.053054072 -0.294866 1.1965001
-0.045079734 -0.29365823 1.197
-0.58288294 -0.28569257 1.1971667
-0.57463539 -0.28483918 1.1975714
-0.56566262 -0.28367594 1.1967778
-0.55700946 -0.28231132 1.1960001
-0.53879642 -0.28917238 1.1950001
-0.58470207 -0.27750316 1.1963334
-0.57497364 -0.27731001 1.1955001
-0.56436223 -0.27629456 1.1935714
-0.55725002 -0.27551767 1.1912
-0.47223821 -0.10363792 1.1911429
-0.46515223 -0.10280874 1.1921668
-0.47402135 -0.095377661 1.1933335
-0.46558276 -0.095161103 1.1959094
-0.45845711 -0.096073247 1.1937501
-0.47362259 -0.08553949 1.1951251
-0.46463662 -0.086121857 1.1979285
-0.45757046 -0.083713695 1.1956
-0.47369641 -0.074903414 1.1953125
-0.46533009 -0.075055949 1.19775
-0.45703405 -0.074791573 1.1935
0.55341989 -0.072524488 1.1956002
-0.47354797 -0.064231873 1.1949376
-0.46529785 -0.064378776 1.1976666
-0.45727211 -0.064187981 1.1941251
0.55344605 -0.06378568 1.1948889
-0.47373736 -0.054937113 1.1954168
-0.46547079 -0.055060759 1.1981111
-0.45836771 -0.054263964 1.1952502
0.54953659 -0.052344009 1.197
0.55194855 -0.055613752 1.1935714
-0.47586817 -0.045876846 1.1952001
-0.46123564 -0.048856448 1.1986667
-0.45713434 -0.045685522 1.19725
0.54702467 -0.044934329 1.1949167
0.55053264 -0.048082396 1.1905
0.62556112 -0.042916652 1.1945
-0.48087448 -0.030831199 1.1900001
-0.47821975 -0.035494767 1.1953001
-0.45691159 -0.036337525 1.1966667
0.53909653 -0.031025514 1.1975
0.54314363 -0.035233062 1.194
0.62703335 -0.036202863 1.1922501
0.63479638 -0.034615628 1.1957272
-0.48110828 -0.024281111 1.1938751
-0.47896975 -0.027046204 1.1985
-0.45449898 -0.025686847 1.1973335
-0.39604768 -0.020227848 1.1900001
0.53667849 -0.023652822 1.1955833
0.54135275 -0.024796978 1.1911429
0.62717575 -0.020227848 1.1900001
0.63300884 -0.028204042 1.1910001
-0.48277444 -0.014986893 1.1947144
0.52793521 -0.013427828 1.1982
0.53458655 -0.015189236 1.1945385
0.54103053 -0.014403529 1.1906
-0.48437527 -0.0056719412 1.195375
0.50778461 -0.0016804126 1.1960001
0.5154162 -0.0034612352 1.1972222
0.52542949 -0.0056813909 1.19675
0.53502935 -0.0056676124 1.1943749
0.54438239 -0.0053906082 1.1921333
0.55468422 -0.0054370998 1.1932501
0.56489426 -0.0045768218 1.1943637
0.57554156 -0.0049479175 1.1950001
0.58537972 -0.0056615211 1.1943572
0.59402603 -0.0060237679 1.194091
0.60436648 -0.0065509747 1.1938335
0.61614329 -0.0058505577 1.1935714
-0.48637557 0.0049729547 1.1937501
-0.45057386 0.00098214578 1.194
0.49837473 0.0089989165 1.199
0.50511533 0.0063131521 1.1960001
0.51431185 0.0049790037 1.1956875
0.52518696 0.0047183433 1.1968001
0.53483611 0.0043220785 1.1974168
0.54380405 0.0029842737 1.1961251
0.55446333 0.00098625862 1.199
0.61886489 0.00098461355 1.197
0.62395489 0.0036430077 1.194
-0.48777649 0.015428484 1.1948572
-0.4472577 0.015592613 1.19225
0.49767825 0.013426746 1.1973333
0.5047437 0.015331962 1.1960769
0.51466864 0.014079931 1.1973637
0.52430695 0.01233509 1.19875
-0.48893228 0.024910187 1.1935
-0.44632095 0.024388822 1.194
0.50203604 0.022278775 1.1950001
-0.49005935 0.038186613 1.1930001
-0.48947361 0.033697344 1.1952858
-0.44674605 0.031676121 1.198
-0.30238587 0.038314648 1.197
-0.29838622 0.038314648 1.197
-0.49005935 0.042172894 1.1930001
-0.48951259 0.045828242 1.196
-0.31228474 0.045694865 1.1963335
-0.30522478 0.04460616 1.1967274
-0.29602745 0.045083277 1.1970003
-0.48934203 0.05552939 1.1945
-0.44978982 0.051733095 1.199
-0.31279007 0.051603656 1.1960001
-0.30488166 0.05161804 1.1963334
-0.29971942 0.051646803 1.197
-0.4891513 0.065550849 1.1935714
-0.44539595 0.06647253 1.192
0.60540515 0.06733346 1.1915001
-0.48947361 0.074774511 1.1952857
-0.44644594 0.074763574 1.1951429
0.58562905 0.078324191 1.1972001
0.59546387 0.076592758 1.194
0.60361856 0.071777984 1.1948001
0.66330463 0.078049421 1.1930001
-0.49016204 0.084711805 1.1932501
-0.48985311 0.083783723 1.199
-0.44637313 0.080977537 1.197
0.56772506 0.088012941 1.196
0.57535982 0.083897024 1.1943334
0.58405143 0.081155933 1.1918
0.66505402 0.084743403 1.19375
-0.49088088 0.095484778 1.1950001
0.55633461 0.097596981 1.1957272
0.56321555 0.09303458 1.1935
0.66604745 0.096054405 1.1922001
0.67180884 0.095681742 1.1975
-0.49151579 0.10537044 1.1928571
0.54621381 0.10660657 1.1944001
0.55270511 0.10279411 1.1923333
0.66787237 0.10450547 1.1916667
0.67357302 0.10617226 1.1955
0.81713998 0.10555847 1.1968888
0.82452679 0.1059571 1.1921765
0.83129019 0.10966321 1.1900001
-0.49195957 0.11467292 1.1948572
-0.44469506 0.11387876 1.1925001
0.53654355 0.11590149 1.1941999
0.54150879 0.11135946 1.1940001
0.67532563 0.11385974 1.1938889
0.68276423 0.1164038 1.1980001
0.79751396 0.11850525 1.199
0.80485761 0.1179513 1.1988
0.81477726 0.11429816 1.1969001
0.8247155 0.11474782 1.1936427
0.835069 0.11525901 1.1910715
0.84357333 0.11633972 1.1905
-0.49251652 0.12422328 1.1952858
-0.44333601 0.12487593 1.196
-0.43873745 0.12432195 1.19075
0.52643359 0.12608421 1.1949091
0.53219485 0.12155056 1.1921999
0.67750484 0.12416454 1.1918001
0.68457532 0.12443422 1.1961112
0.69039047 0.12779948 1.1985
0.7561152 0.12918879 1.199
0.76475775 0.1277357 1.1979001
0.77318573 0.12551841 1.1937501
0.79784828 0.12579826 1.1985
0.80563688 0.12497447 1.1977646
0.8154161 0.12469102 1.1972308
0.82483333 0.12484238 1.1964707
0.83472347 0.12479042 1.1944706
0.84371495 0.12488096 1.193154
-0.49366006 0.13609602 1.194
-0.44383025 0.13434504 1.1973333
-0.4391059 0.13504475 1.19175
0.50863373 0.13975568 1.1980001
0.51583385 0.13641404 1.1940833
0.5222348 0.13180812 1.1925001
0.67754167 0.13086991 1.1900001
0.68480736 0.1352312 1.1934167
0.69375777 0.13666056 1.1981667
0.75641376 0.13646641 1.1984166
0.76536101 0.13505878 1.1962106
0.77251285 0.13606586 1.1910001
0.78357512 0.13882242 1.1900001
0.79617852 0.13720144 1.199
0.80425185 0.13467601 1.1979001
0.81479686 0.13568096 1.1986667
0.82574266 0.13526209 1.1987143
0.83501983 0.1356691 1.1972501
0.84462917 0.13549912 1.19575
-0.49500182 0.14547355 1.1948572
-0.44308448 0.145119 1.1982
-0.43739074 0.14641947 1.1925001
-0.30283159 0.14587897 1.1935
-0.29871786 0.14581731 1.1930001
0.49923688 0.14695995 1.1915001
0.50477093 0.14350294 1.1942858
0.51053882 0.14147326 1.1900001
0.68553543 0.14573883 1.1923751
0.69426489 0.14538804 1.1972858
0.75516671 0.14503224 1.1975
0.764898 0.14496185 1.1952307
0.77461636 0.14563812 1.1921053
0.78439802 0.14560257 1.19125
0.79398417 0.1455199 1.193077
0.80401385 0.14521353 1.1962501
0.8133139 0.14517373 1.1986667
0.82956463 0.14254321 1.199
0.83628786 0.14491645 1.1985455
0.84562939 0.14499263 1.1971668
-0.4972553 0.15529273 1.1943334
-0.44177717 0.15322675 1.199
-0.43751931 0.15533569 1.1946667
-0.30388936 0.15305823 1.1976666
-0.29934385 0.15144849 1.1955001
0.48797297 0.15364179 1.1953334
0.49441582 0.15159789 1.1946
0.68484074 0.15487877 1.1911666
0.69471723 0.15427132 1.19675
0.75885361 0.15030473 1.197
0.76439708 0.1545037 1.1968948
0.77483296 0.15536858 1.1949166
0.78487915 0.15524904 1.1940001
0.79507583 0.15542237 1.1953334
0.80424029 0.1543169 1.1970834
0.81236863 0.15352894 1.19875
0.83668691 0.15144618 1.199
0.84461361 0.15334545 1.1984288
0.85045856 0.15581171 1.1983334
-0.50026971 0.16826394 1.192
-0.49906406 0.16406481 1.1945714
-0.43812969 0.1635465 1.1963334
-0.3346352 0.16776292 1.1960001
-0.32826453 0.16925207 1.199
-0.30155566 0.16925207 1.199
-0.29754931 0.16658118 1.199
0.68812841 0.16332608 1.1915001
0.6952486 0.16474295 1.195375
0.70142782 0.16593453 1.1982
0.76546335 0.16123942 1.199
0.77432591 0.16247372 1.1982501
0.78483981 0.16377507 1.1980001
0.79471391 0.16350807 1.1980001
0.80407959 0.16255243 1.1988333
-0.50035948 0.17613487 1.1943334
-0.49970174 0.1729694 1.197
-0.44140875 0.17978556 1.1980001
-0.43831217 0.17623059 1.192
-0.36104733 0.17963548 1.197
-0.3403801 0.17328331 1.1900001
-0.33445087 0.17497402 1.1925001
-0.3264524 0.17538407 1.1953001
-0.31357947 0.17580552 1.1981667
-0.30493543 0.17549568 1.198154
-0.29762185 0.17659707 1.1975
-0.28638726 0.17963548 1.197
0.69608819 0.1744574 1.1920002
0.70503354 0.17573321 1.1966667
0.71204561 0.17993562 1.199
-0.50032353 0.18494 1.1934
-0.49970174 0.18630156 1.197
-0.44104028 0.18230191 1.197
-0.43654269 0.18154041 1.192
-0.36104733 0.18230191 1.197
-0.35838091 0.18363513 1.197
-0.32290599 0.18184501 1.194
-0.31381345 0.18344466 1.1969999
-0.304719 0.18463503 1.197
-0.29571977 0.18496835 1.1970001
-0.28798714 0.18443505 1.197
0.69933552 0.18138812 1.1910001
0.70533419 0.18577316 1.1926666
0.71395141 0.1850784 1.1977142
-0.50026971 0.1921616 1.192
-0.49958637 0.19551897 1.194
-0.4384611 0.19714084 1.1900001
-0.30371907 0.19030119 1.197
-0.29705298 0.19030119 1.197
0.48800671 0.1997917 1.1900001
0.49198297 0.1997917 1.1900001
0.70586449 0.1954345 1.1911428
0.71551567 0.1945456 1.1962729
0.7220614 0.1946255 1.199
-0.49895301 0.20538649 1.193625
-0.44474483 0.20549285 1.1967143
-0.43882954 0.201285 1.191
0.47740337 0.20774421 1.1900001
0.48615113 0.20535846 1.1900002
0.49463382 0.2064188 1.1900001
0.50391173 0.20774421 1.1900001
0.53572184 0.20774421 1.1900001
0.54499978 0.2077442 1.1900001
0.55030143 0.20774421 1.1900001
0.69933552 0.20791879 1.1910001
0.7063064 0.20498967 1.1932502
0.71479928 0.20495066 1.1969
0.72094852 0.20397359 1.199
-0.49820647 0.21492955 1.1955556
-0.43768838 0.21729402 1.1915001
-0.34427562 0.21914266 1.1943334
0.47747004 0.21307535 1.1901667
0.48562092 0.21410625 1.1900003
0.49529761 0.21417682 1.1906155
0.50454408 0.21479362 1.1908667
0.51494741 0.2145531 1.191
0.5251804 0.21425171 1.1914285
0.53492075 0.21526803 1.1928571
0.54511392 0.21478128 1.1937333
0.55491519 0.21491235 1.1934667
0.56504577 0.21627164 1.1931539
0.57548386 0.21752505 1.19275
0.58505601 0.21760371 1.1921428
0.59478903 0.21729738 1.1915001
0.604559 0.21807425 1.1914001
0.61285293 0.2184393 1.1905
0.66693825 0.21834755 1.1900001
0.67549497 0.21818435 1.1920002
0.68570423 0.21662189 1.1932501
0.69496858 0.21525948 1.1949002
0.70445198 0.21394563 1.196875
0.7130841 0.21189785 1.1985
-0.49760416 0.22529325 1.1947143
-0.44177717 0.22534069 1.199
-0.43485662 0.22603042 1.1925715
-0.3260743 0.2211841 1.1910001
0.48880196 0.22417939 1.1900001
0.49477312 0.22503765 1.1903335
0.50454807 0.22525822 1.1915001
0.51534569 0.22518834 1.1925335
0.52485263 0.22571611 1.1939167
0.53478134 0.22443637 1.1956
0.54485983 0.22532822 1.1976364
0.55545193 0.2238657 1.1982501
0.56537002 0.22360222 1.1978571
0.5748688 0.22363271 1.197
0.58525199 0.22503006 1.1973335
0.59532154 0.22524424 1.1971821
0.60480094 0.22458854 1.1962729
0.61512899 0.22457917 1.1949288
0.62517864 0.22447516 1.1930909
0.6352669 0.22549593 1.1927501
0.64515173 0.22524552 1.1924286
0.65548044 0.22426835 1.1932727
0.66511738 0.22453025 1.1946667
0.67472041 0.22425343 1.19675
0.68476659 0.2224841 1.198
-0.49722049 0.23508558 1.1942501
-0.43439803 0.23406804 1.1958333
-0.42821729 0.23577708 1.191
0.47627798 0.23832949 1.1905
