# .PCD v0.7 - Point Cloud Data file format
VERSION 0.7
FIELDS x y z
SIZE 4 4 4
TYPE F F F
COUNT 1 1 1
WIDTH 1434
HEIGHT 1
VIEWPOINT 0 0 0 1 0 0 0
POINTS 1434
DATA ascii
0.284906 -0.25556123 0.94323993
0.29521087 -0.25534981 0.94340014
0.30497459 -0.2547124 0.94413781
0.31485841 -0.25508675 0.9432224
0.32504129 -0.25515965 0.9420833
0.33506411 -0.25535426 0.94247842
0.34463906 -0.25519949 0.94495648
0.35156178 -0.25683388 0.94571441
0.26883239 -0.24692631 0.94880009
0.27566683 -0.24617632 0.94800007
0.28458667 -0.24629429 0.94765216
0.29437715 -0.24693769 0.94793755
0.30551153 -0.24748187 0.94850004
0.3160902 -0.24755819 0.94764298
0.32517475 -0.24647366 0.94759089
0.33458081 -0.24698903 0.94768423
0.34248739 -0.2485389 0.94850004
-0.61667502 -0.39071834 0.95000005
-0.60386664 -0.39098108 0.95150012
-0.59490526 -0.39151847 0.95583344
-0.61484373 -0.38454655 0.95044017
-0.60431099 -0.38490421 0.95219994
-0.59559751 -0.3847602 0.95708001
-0.62082702 -0.37331626 0.95150006
-0.61514616 -0.37464541 0.95147818
-0.6048283 -0.37471399 0.95272422
-0.59458452 -0.37516361 0.9569599
-0.58820021 -0.37368318 0.95877784
-0.62304634 -0.36452103 0.9544546
-0.61504471 -0.36411551 0.95313638
-0.60487878 -0.36478403 0.95243472
-0.5954318 -0.36456209 0.9547779
-0.58625132 -0.36453131 0.95805877
-0.62354875 -0.35575306 0.95581824
-0.61515743 -0.35467738 0.95478272
-0.60475904 -0.35473636 0.95340014
-0.59450173 -0.35476223 0.95465398
-0.58530557 -0.35513964 0.95725006
-0.57979196 -0.35276276 0.95900005
-0.62144911 -0.34849024 0.95900005
-0.61458373 -0.34568104 0.95773333
-0.60484195 -0.34525257 0.95607418
-0.5952127 -0.34474376 0.95632011
-0.58571446 -0.34507236 0.9579168
-0.57979196 -0.34955835 0.95900005
-0.60435903 -0.33887702 0.95900005
-0.59474581 -0.33887702 0.95899999
-0.58833706 -0.33887702 0.95900005
0.25387207 -0.2946665 0.95362502
0.25512293 -0.2848216 0.95453584
0.2564612 -0.27496713 0.95437521
0.25645906 -0.26504782 0.95469582
0.26155418 -0.26162922 0.95000005
0.25638515 -0.25504789 0.95475006
0.26195279 -0.25461924 0.9501667
0.34831899 -0.25104815 0.95000005
0.35441008 -0.25194219 0.95500004
0.25674129 -0.24550141 0.95573688
0.26403782 -0.24443553 0.95133346
0.27334452 -0.2410717 0.94999993
0.28553796 -0.24081977 0.94999999
0.29591188 -0.24190582 0.9503637
0.3051506 -0.24275279 0.95066673
0.3141489 -0.24239436 0.95053858
0.32418194 -0.24110787 0.95014286
0.33571032 -0.24185298 0.95025003
0.34497976 -0.24474388 0.95211768
0.3523362 -0.24487805 0.95672727
0.25768998 -0.2356711 0.95709097
0.26453349 -0.23488581 0.95312005
0.27459726 -0.23441228 0.95120013
0.28528926 -0.23449054 0.95152009
0.29516172 -0.23475674 0.95260012
0.304851 -0.23486555 0.95304
0.31534588 -0.23477691 0.95267975
0.32551894 -0.23476535 0.95191652
0.33503252 -0.23441903 0.95204753
0.3443847 -0.2350419 0.95375013
0.35277656 -0.23447447 0.9575001
0.25886685 -0.22727656 0.95833343
0.26525521 -0.22487989 0.95572007
0.27527669 -0.22469163 0.95416665
0.28488699 -0.22440702 0.95457149
0.29496494 -0.22480479 0.95540023
0.30521834 -0.22507031 0.95534784
0.31462672 -0.22446403 0.95518184
0.32451481 -0.22463599 0.95468009
0.33502179 -0.22455102 0.95432019
0.34488067 -0.22447738 0.95442873
0.35455334 -0.2247161 0.95539135
0.36397612 -0.22397336 0.95666665
0.3737154 -0.22244088 0.95844448
0.40716171 -0.22351882 0.95899999
0.41503286 -0.22422457 0.95745009
0.42420831 -0.22238496 0.95478588
0.43190688 -0.22170563 0.95350003
0.26631334 -0.21850528 0.95842868
0.27475193 -0.21674596 0.95807153
0.28509709 -0.21688215 0.958
0.29472619 -0.2169012 0.95808339
0.3043243 -0.21689735 0.95806664
0.31500617 -0.21583736 0.95809996
0.32532921 -0.21592398 0.95773685
0.33513463 -0.21477169 0.95768172
0.34472689 -0.2143814 0.95716661
0.35417947 -0.21443771 0.95539117
0.36257389 -0.21720541 0.95316672
0.37510797 -0.21861757 0.95625001
0.38259467 -0.21924628 0.95900005
0.4060936 -0.21924628 0.95900005
0.41479534 -0.21770075 0.9569
0.4243415 -0.21713161 0.95440006
0.43360388 -0.21770234 0.95309103
0.35375512 -0.20856497 0.95900005
-0.59108901 -0.3862772 0.96000004
-0.5882377 -0.38449514 0.96000004
-0.58395809 -0.37548116 0.96046668
-0.57681626 -0.37292159 0.9632501
-0.58178616 -0.36620778 0.96033341
-0.57507747 -0.36486122 0.96411103
-0.58039653 -0.35740757 0.96000004
-0.57472324 -0.35514954 0.96413338
-0.63121688 -0.34381229 0.96342868
-0.62541795 -0.34469625 0.96200001
-0.61744666 -0.34199241 0.96025002
-0.58094513 -0.34400621 0.96020001
-0.57481045 -0.34523264 0.96337944
-0.56798106 -0.34440905 0.96800005
-0.63071132 -0.33562261 0.96500003
-0.62503517 -0.33468848 0.96513647
-0.61479145 -0.33479625 0.96311539
-0.60491925 -0.33426082 0.96177781
-0.59495872 -0.33435574 0.96152627
-0.58451927 -0.33494067 0.96239281
-0.57523715 -0.33506355 0.96546674
-0.56674713 -0.33573419 0.968059
-0.63116711 -0.32945943 0.96900004
-0.6241172 -0.3286266 0.96866661
-0.6147185 -0.32709655 0.9678182
-0.60485452 -0.32558069 0.96669573
-0.59505695 -0.32516479 0.96620697
-0.58547342 -0.32571381 0.96712011
-0.57526827 -0.32747629 0.9685384
-0.56784993 -0.32873991 0.96900004
-0.6009475 -0.31866676 0.96900004
-0.59447193 -0.31866676 0.96900004
0.25107503 -0.2742475 0.96211118
0.25130713 -0.26473296 0.963
0.24900195 -0.25554061 0.96700013
0.25098196 -0.25487116 0.96266675
0.35924098 -0.25481996 0.96225005
0.2493882 -0.24622746 0.96850002
0.25192884 -0.24458013 0.96300006
0.35735995 -0.24516785 0.9618001
0.36232817 -0.2428885 0.9666667
0.25326335 -0.23466004 0.9634707
0.35824779 -0.23659758 0.96149999
0.3650161 -0.23427004 0.96400005
0.3738831 -0.23340265 0.96630001
0.38410068 -0.2327747 0.96750003
0.39645907 -0.2324957 0.96714288
0.40432861 -0.23088577 0.96171433
0.25497159 -0.22508664 0.9643501
0.26003042 -0.22161341 0.96000004
0.36821643 -0.22814764 0.9605
0.37626758 -0.22668181 0.96133339
0.38549268 -0.22557627 0.96294123
0.39560014 -0.22563569 0.9628095
0.40343484 -0.22596142 0.96030009
0.25781062 -0.21530929 0.96600002
0.26414785 -0.21439926 0.96147376
0.27514309 -0.21210003 0.96050006
0.28534886 -0.21220663 0.96044445
0.29489174 -0.21199343 0.96055561
0.30500156 -0.21203414 0.96020001
0.31563115 -0.21092096 0.96000004
0.32525438 -0.21092094 0.96000004
0.33060059 -0.21092094 0.96000004
0.39602965 -0.2195892 0.9605
0.40117079 -0.2194749 0.96000004
0.25896174 -0.20836599 0.96800005
0.26495564 -0.20560504 0.96555567
0.27500576 -0.20530508 0.96377283
0.28471664 -0.20503341 0.96333319
0.29506743 -0.20507306 0.96268022
0.30532473 -0.20529149 0.96239138
0.31483331 -0.20470396 0.96231836
0.32481971 -0.20490277 0.96188003
0.33525094 -0.20501818 0.9615832
0.34510377 -0.20486008 0.9616819
0.35504788 -0.20455584 0.96200007
0.26642129 -0.19711208 0.9683333
0.27502087 -0.1953443 0.96760005
0.28537959 -0.19536085 0.96679157
0.29502168 -0.19503047 0.96604544
0.30467403 -0.19471651 0.96537501
0.31504139 -0.19505781 0.9652918
0.32498145 -0.19492917 0.96554548
0.3347517 -0.19469963 0.96529168
0.34526345 -0.19484425 0.96511996
0.35544872 -0.19514996 0.96518177
0.36138764 -0.19327182 0.96800011
0.27865723 -0.18915439 0.96900004
0.28585234 -0.18843488 0.96900004
0.29523855 -0.18673529 0.96840006
0.30533913 -0.18573257 0.96805
0.31502697 -0.18572308 0.96799999
0.32478037 -0.18575165 0.96815014
0.33534607 -0.18483199 0.9680419
0.34489027 -0.18440259 0.96780968
0.35388547 -0.18499471 0.96714312
0.36138767 -0.1889592 0.96800005
0.34665123 -0.1783617 0.96900004
0.35312685 -0.1783617 0.96900004
-0.57085443 -0.3577826 0.97166675
-0.56794 -0.35397089 0.97476929
-0.56350875 -0.34567124 0.97311127
-0.55650222 -0.34262601 0.97700006
-0.56173801 -0.33528832 0.97025007
-0.55505157 -0.33481053 0.97362971
-0.54832876 -0.3331416 0.97800004
-0.64040279 -0.32439721 0.97650003
-0.63469017 -0.3247858 0.97477788
-0.62535262 -0.32402211 0.97212505
-0.61543584 -0.32281813 0.97066677
-0.60805005 -0.32115638 0.97000003
-0.58320123 -0.32115638 0.97000003
-0.57529575 -0.32288727 0.97033352
-0.56471354 -0.32519868 0.97063655
-0.55444229 -0.32488379 0.97325939
-0.54778826 -0.32545319 0.97750002
-0.64138651 -0.3194479 0.97800004
-0.63487893 -0.31487831 0.97663164
-0.62496281 -0.31453994 0.97545844
-0.6153006 -0.31522837 0.97354561
-0.60504532 -0.31488681 0.97161901
-0.5948205 -0.3140223 0.9713335
-0.58490664 -0.31524172 0.97175997
-0.57484823 -0.31570348 0.97262508
-0.56471908 -0.31497556 0.97366667
-0.55538619 -0.31497425 0.97579318
-0.54912597 -0.31776994 0.97820008
-0.63436824 -0.30496433 0.97859997
-0.62475532 -0.30399749 0.97831821
-0.61473846 -0.30455902 0.97734773
-0.60520244 -0.30465695 0.9765386
-0.59491885 -0.30544516 0.97504181
-0.58483589 -0.30570623 0.97558349
-0.57481688 -0.30477148 0.97696567
-0.56545627 -0.30617562 0.97736841
-0.5568276 -0.30753416 0.97871435
-0.63768071 -0.29796642 0.97900003
-0.59434003 -0.29903743 0.97842866
-0.58504218 -0.29890355 0.97850001
-0.57879865 -0.29796642 0.97900003
0.24832134 -0.23554645 0.97491664
0.25011778 -0.23288389 0.97133344
0.2494006 -0.22771268 0.97700006
0.25153738 -0.22415468 0.97311115
0.25399742 -0.21503322 0.97378576
0.25622246 -0.20483342 0.9740001
0.26057827 -0.20015344 0.97000003
0.25773305 -0.19478641 0.97560006
0.26352641 -0.19403367 0.97091675
0.25869888 -0.18603894 0.9776001
0.26475531 -0.18537439 0.97346443
0.27451533 -0.18481204 0.97115022
0.28416511 -0.18370193 0.97061127
0.29434642 -0.18204024 0.97020006
0.304874 -0.18070653 0.97000003
0.31459746 -0.18070653 0.97000009
0.32540128 -0.18070653 0.97000009
0.26534489 -0.17578143 0.97695231
0.2748726 -0.17506851 0.97472006
0.28523973 -0.17506038 0.97366667
0.29495057 -0.17474256 0.97290921
0.30465198 -0.17442895 0.97216672
0.31498441 -0.17471546 0.9717502
0.3249886 -0.17457856 0.97200018
0.33481196 -0.17434739 0.97170848
0.34487572 -0.17379549 0.97090918
0.35470843 -0.17320977 0.97037512
0.26773873 -0.16839138 0.9788
0.27566189 -0.16653676 0.9780001
0.28518793 -0.16504136 0.97769994
0.29495963 -0.16479857 0.97712493
0.30499631 -0.16461675 0.9765653
0.31478882 -0.1641653 0.9761306
0.32503062 -0.16459413 0.97591662
0.33518347 -0.1644848 0.97578287
0.34470782 -0.16425066 0.97439134
0.35364425 -0.16475688 0.97279996
0.30552191 -0.15839422 0.97900003
0.31533557 -0.15839422 0.97899997
0.32561657 -0.15745959 0.97900003
0.33482561 -0.15723911 0.97860003
0.3457571 -0.15575624 0.97766662
0.35442349 -0.1553631 0.9755457
0.35398588 -0.14941615 0.97733337
-0.54294389 -0.32461309 0.98426926
-0.55101037 -0.31136903 0.98000002
-0.54499263 -0.31483164 0.98424149
-0.6425522 -0.30471429 0.98200005
-0.63614899 -0.30326056 0.98000002
-0.56396025 -0.3011651 0.98028576
-0.55426461 -0.30395064 0.98190469
-0.54693013 -0.30549482 0.98617405
-0.64111149 -0.2933341 0.98175001
-0.63482642 -0.29380554 0.98150027
-0.62515396 -0.29436108 0.98121727
-0.61529732 -0.2943182 0.98199987
-0.60508198 -0.29458219 0.98195666
-0.59502763 -0.29371098 0.98138893
-0.58520103 -0.2930488 0.98161113
-0.57488191 -0.29420614 0.98162514
-0.56484753 -0.29485831 0.98319238
-0.55532753 -0.29569581 0.98628008
-0.54854178 -0.29797181 0.98866671
-0.64358848 -0.2839765 0.98614293
-0.63506681 -0.28445682 0.98509532
-0.62519026 -0.28455666 0.98544002
-0.61521184 -0.2849015 0.98630458
-0.60535187 -0.28473708 0.98640937
-0.59507161 -0.28472596 0.98569554
-0.58495206 -0.2846311 0.98569578
-0.57493377 -0.28458527 0.98586959
-0.56507987 -0.2850194 0.98704034
-0.55756444 -0.28743199 0.98845458
-0.64415795 -0.27627304 0.98863637
-0.6351406 -0.27529392 0.98826331
-0.62600422 -0.27628022 0.98835719
-0.61649835 -0.27834961 0.98899996
-0.60422736 -0.27712524 0.98881823
-0.59467816 -0.27677238 0.9883846
-0.58468705 -0.27645805 0.98842859
-0.57499659 -0.27683693 0.98861539
-0.56666708 -0.27753162 0.98874992
0.25050676 -0.22216463 0.98133343
0.25125846 -0.21516523 0.98430002
0.25246251 -0.20474066 0.98354548
0.25341994 -0.19473937 0.98478574
0.25581399 -0.18478194 0.98326671
0.25705457 -0.17532641 0.98476475
0.26189807 -0.17244034 0.98033333
0.25822678 -0.16600457 0.9865455
0.26452687 -0.16450211 0.98200005
0.273947 -0.16140965 0.9802857
0.28291205 -0.16073905 0.98000002
0.25891596 -0.15551022 0.9884001
0.2645826 -0.15496171 0.98492002
0.27490667 -0.15459597 0.98260015
0.28506616 -0.15479159 0.98195463
0.29476687 -0.15419516 0.98186964
0.30493382 -0.15355685 0.98128581
0.31484672 -0.15323327 0.98087502
0.32429668 -0.15265606 0.98088229
0.33506313 -0.15246102 0.9807694
0.34294569 -0.15200688 0.98000002
0.25907311 -0.14899668 0.98900002
0.26521274 -0.14471675 0.987261
0.27526113 -0.14543472 0.98561108
0.28501928 -0.14494614 0.98561126
0.29515782 -0.14530505 0.98521054
0.30473065 -0.14483792 0.98452938
0.3146576 -0.14490972 0.98369998
0.32504293 -0.14511596 0.98344451
0.33492193 -0.14490226 0.98326313
0.34486476 -0.1458043 0.98236006
0.352795 -0.14494827 0.98249996
0.26710027 -0.13758615 0.98842853
0.27476734 -0.13652563 0.98822224
0.28522155 -0.1367396 0.98800021
0.2951065 -0.13673088 0.98793763
0.30489266 -0.13557734 0.98756003
0.31516364 -0.1357156 0.98647845
0.32489759 -0.13511394 0.98636365
0.33522952 -0.13539152 0.98620015
0.34506273 -0.13537058 0.98605001
0.35316482 -0.13571909 0.98576468
0.30974421 -0.12916887 0.98900002
0.31591287 -0.12872824 0.98900002
0.32500148 -0.12800202 0.9885
0.33496681 -0.12692223 0.98866677
0.34487736 -0.12692222 0.98866671
0.35292074 -0.12718752 0.98828572
-0.54074913 -0.31215137 0.99080008
-0.54214168 -0.30380699 0.99275005
-0.55070716 -0.29201505 0.99025005
-0.54453653 -0.29489473 0.99439287
-0.55362254 -0.28445092 0.99066663
-0.5457052 -0.28501335 0.99525934
-0.64534771 -0.271148 0.99028581
-0.63492173 -0.27043986 0.99000007
-0.62380016 -0.27203825 0.99020004
-0.61463195 -0.27347121 0.99064702
-0.60522705 -0.27256912 0.99045467
-0.59522599 -0.27154255 0.99000013
-0.58530205 -0.27154255 0.99000007
-0.57495809 -0.27151111 0.99033344
-0.56453353 -0.27376422 0.9905625
-0.55515301 -0.27532464 0.99257147
-0.54677808 -0.27538845 0.99683338
-0.65143585 -0.26311404 0.99400008
-0.64514226 -0.26465887 0.99277282
-0.63466614 -0.26453233 0.99233323
-0.62497848 -0.26474655 0.99347836
-0.61512977 -0.26480046 0.99404359
-0.60488713 -0.2646704 0.99319059
-0.59503084 -0.26470321 0.99295658
-0.58509052 -0.26453087 0.99304545
-0.57495612 -0.26464063 0.99308348
-0.56476349 -0.26504904 0.99461544
-0.55508554 -0.26623029 0.99686944
-0.54834104 -0.2684477 0.99900007
-0.65149379 -0.25830364 0.99850005
-0.64502412 -0.25697553 0.99766666
-0.63493705 -0.25694081 0.99753344
-0.62512696 -0.25738934 0.99783331
-0.61424881 -0.25722572 0.9979167
-0.60512155 -0.25701848 0.99783355
-0.59473461 -0.25637633 0.99750006
-0.5850125 -0.25587863 0.99747074
-0.57534486 -0.25646245 0.99770594
-0.56578863 -0.25854933 0.99837506
-0.55946785 -0.25954622 0.99900007
0.25221187 -0.18529321 0.99354553
0.25322428 -0.17437024 0.99436373
0.25426251 -0.16471316 0.99433339
0.25494057 -0.15505989 0.99464709
0.25692648 -0.14475511 0.99349999
0.26154041 -0.14032607 0.99000007
0.25728363 -0.13536909 0.99573338
0.26371074 -0.13369511 0.99115384
0.27477232 -0.13150479 0.99000007
0.28469625 -0.13150479 0.99000007
0.29462019 -0.13150479 0.99000007
0.25881442 -0.12547775 0.99820006
0.26487184 -0.12541942 0.99424005
0.27500239 -0.12545356 0.99221742
0.28483355 -0.12486432 0.9922272
0.29500607 -0.1253105 0.9919166
0.30491024 -0.12493222 0.99204761
0.31466976 -0.1237806 0.99136835
0.32538968 -0.12291975 0.99064291
0.3349936 -0.12152594 0.99055564
0.34500697 -0.12175746 0.9904446
0.35261285 -0.12143334 0.99060011
0.2660701 -0.11627217 0.99768758
0.27484325 -0.11435907 0.99686962
0.28501308 -0.11487379 0.99630445
0.29493964 -0.11430392 0.99650002
0.30490676 -0.11484332 0.99604356
0.31477365 -0.11436234 0.99521744
0.32475147 -0.11412492 0.99391675
0.33514261 -0.11524744 0.99244994
0.34504417 -0.11523169 0.99231249
0.35266253 -0.11495794 0.99254537
0.27727023 -0.10822126 0.99900007
0.2855359 -0.10726751 0.99900007
0.2950432 -0.10709773 0.99890012
0.30527973 -0.1061588 0.99863648
0.31522644 -0.1051707 0.99822235
0.32511607 -0.1049293 0.9971112
0.33468115 -0.1053566 0.99586356
0.34472844 -0.10576611 0.99512506
0.35238937 -0.10518372 0.99518186
0.32734102 -0.099319778 0.99900007
0.33575866 -0.098915748 0.99866676
0.34497121 -0.098157384 0.99850011
0.35409081 -0.096818753 0.99808341
-0.54098076 -0.28426889 1.0011667
-0.54257751 -0.27410758 1.0034446
-0.55213094 -0.26159456 1.0011667
-0.54617608 -0.26537633 1.0045834
-0.66146344 -0.25177377 1.0035
-0.6555118 -0.25513867 1.0008125
-0.64480603 -0.25205961 1.0002
-0.63496959 -0.25213489 1.0005
-0.62474716 -0.25283888 1.0010835
-0.61524045 -0.25258437 1.0014001
-0.60468954 -0.25238457 1.0009999
-0.59549707 -0.2517218 1.0003333
-0.58453137 -0.25089562 1
-0.57375062 -0.2518878 1.000625
-0.56445545 -0.2541188 1.0011876
-0.5545966 -0.25488076 1.00308
-0.54789299 -0.25617981 1.0073078
-0.65435517 -0.24474926 1.0022001
-0.64511508 -0.24491185 1.002
-0.63543767 -0.24494314 1.0030001
-0.6252467 -0.24500391 1.0047201
-0.61514062 -0.24557532 1.0051818
-0.60522014 -0.24537185 1.0047621
-0.59493792 -0.24510622 1.0032381
-0.58474612 -0.24477038 1.0026957
-0.5747661 -0.24517556 1.00396
-0.5646922 -0.24564506 1.0055001
-0.55534512 -0.24594221 1.0070953
-0.54933459 -0.24865842 1.0090001
-0.65486974 -0.23496819 1.0041764
-0.64471436 -0.23510495 1.0044
-0.63488406 -0.23464803 1.0059582
-0.62516469 -0.2350667 1.0077499
-0.61531603 -0.23774247 1.0086364
-0.60442215 -0.2374308 1.0081819
-0.59473473 -0.23556395 1.0072943
-0.58503854 -0.23461425 1.0070437
-0.57545024 -0.23587756 1.0077001
-0.56537062 -0.23767482 1.0086154
-0.55720139 -0.23966785 1.0090001
-0.62784594 -0.22781111 1.0087501
0.25094914 -0.16483954 1.0050001
0.25120956 -0.15432517 1.0045556
0.25174412 -0.14491583 1.0043572
0.25307658 -0.13494414 1.0042307
0.25514448 -0.12518828 1.0042001
0.25735861 -0.11566665 1.0045882
0.2628051 -0.11207463 1.001125
0.25838956 -0.10513264 1.0073333
0.26482043 -0.10505913 1.0032381
0.27484626 -0.10465407 1.0008125
0.28459543 -0.10303418 1.0005
0.29545647 -0.10279109 1.0003
0.30472443 -0.10209231 1
0.3120755 -0.10164679 1
0.25981694 -0.096942499 1.0090001
0.26559633 -0.095645264 1.0061364
0.27481812 -0.095044166 1.0040909
0.28508258 -0.095246039 1.003
0.29499018 -0.095198296 1.0025001
0.30487454 -0.095147371 1.00196
0.3150472 -0.095317885 1.0015239
0.32471201 -0.09449508 1.0015
0.33485296 -0.093988195 1.0015001
0.34487963 -0.092870496 1.0014668
0.3536396 -0.0921911 1.001
0.26659247 -0.085840844 1.0084167
0.27504659 -0.084423646 1.0071601
0.28461298 -0.084838353 1.0061668
0.29476723 -0.085409306 1.00555
0.30500963 -0.08556024 1.0050001
0.31497425 -0.085181624 1.0049472
0.32491076 -0.085383698 1.00525
0.33480799 -0.085574463 1.005421
0.344769 -0.085194632 1.005353
0.3526963 -0.085333802 1.0046668
0.27662802 -0.077075474 1.0088333
0.28543836 -0.076147541 1.0084666
0.29512048 -0.075812146 1.008087
0.30506599 -0.075202964 1.0079548
0.31459799 -0.076213695 1.0078948
0.3249808 -0.076474667 1.0082104
0.33512264 -0.076032788 1.0082779
0.34488472 -0.075512841 1.0080001
0.35304204 -0.07601773 1.00725
0.30252215 -0.068846963 1.0090001
0.34710041 -0.068097748 1.0089999
0.35297707 -0.06657695 1.0086666
-0.55154896 -0.24126841 1.011
-0.54648644 -0.24535702 1.0143334
-0.62187487 -0.23090588 1.01
-0.61488622 -0.23291546 1.0104617
-0.60570896 -0.23253305 1.0105555
-0.59712625 -0.23090588 1.01
-0.5728277 -0.23135586 1.01
-0.56433237 -0.23282032 1.0104998
-0.55480856 -0.23463009 1.0123334
-0.54776102 -0.23565966 1.0169333
-0.59482896 -0.22472954 1.0126001
-0.58501297 -0.22450362 1.0120455
-0.57501429 -0.22474341 1.0126666
-0.56473893 -0.22505058 1.013625
-0.55540144 -0.22571966 1.016174
-0.54969907 -0.22819947 1.018
-0.56525648 -0.21636745 1.0176876
-0.55837917 -0.21851556 1.0186667
0.24900743 -0.1365725 1.016
0.25068963 -0.13230006 1.013
0.25165415 -0.12463053 1.0140001
0.25261155 -0.1154526 1.0145454
0.25467402 -0.10468295 1.0136001
0.25581086 -0.095440052 1.0145334
0.26007441 -0.092538834 1.01
0.25693768 -0.085114717 1.0154001
0.26258266 -0.083534598 1.011
0.25815591 -0.07544972 1.0172222
0.26523837 -0.074726343 1.01255
0.27410543 -0.073447168 1.0104547
0.28407302 -0.071540035 1.0100001
0.31744611 -0.071165062 1.01
0.32532066 -0.071165062 1.01
0.33319521 -0.071165062 1.01
0.25919518 -0.068727903 1.0183334
0.26499847 -0.064980358 1.0159584
0.27478835 -0.064312235 1.0130436
0.28520566 -0.064500228 1.0113602
0.29518104 -0.064464241 1.0108001
0.30521542 -0.064129964 1.0108502
0.3150956 -0.064189591 1.0113182
0.32493722 -0.064720906 1.0114763
0.33487925 -0.064297222 1.0111251
0.34379613 -0.064265713 1.0103847
0.35175666 -0.062728047 1.01
0.26650137 -0.055291444 1.0180833
0.27507451 -0.054587871 1.0155501
0.28478628 -0.054497533 1.0138751
0.29485506 -0.054479253 1.01355
0.30509445 -0.054494094 1.0138127
0.31488198 -0.054766878 1.0142224
0.32504746 -0.054285023 1.0146111
0.33498248 -0.054724667 1.0144119
0.34498918 -0.055085611 1.0134091
0.35174331 -0.056730729 1.0112224
0.2692017 -0.049100023 1.0190001
0.27554393 -0.046779238 1.0179231
0.28493178 -0.045449805 1.017579
0.29487106 -0.045625094 1.0175
0.30480802 -0.045800611 1.0174211
0.31496376 -0.045428928 1.0175883
0.32469806 -0.045829505 1.0175883
0.33497372 -0.045474358 1.0181053
0.34513786 -0.044759952 1.018158
0.35118231 -0.044544127 1.0186667
0.34864885 -0.036615469 1.0190001
0.35189161 -0.033859137 1.0190001
0.35188043 -0.028656684 1.0185001
-0.55131739 -0.22204717 1.021
-0.54643607 -0.22512156 1.0246521
-0.67024863 -0.18252918 1.029
-0.66334361 -0.17581241 1.0286001
-0.65374482 -0.16785914 1.029
-0.64518249 -0.16627324 1.0287144
0.25086814 -0.11253278 1.0220001
0.25106981 -0.10519977 1.0237499
0.25184274 -0.094447024 1.0245835
0.25282446 -0.085187748 1.0244001
0.25421178 -0.074823 1.0241668
0.25596434 -0.065057695 1.0242943
0.26037729 -0.060508944 1.0200001
0.25725091 -0.055131882 1.0256666
0.26208511 -0.054035459 1.0211251
0.25841898 -0.045324758 1.027
0.26536673 -0.04451929 1.0224584
0.27446151 -0.04150454 1.020625
0.28537092 -0.040059622 1.0200001
0.29559559 -0.040059622 1.0200001
0.30468413 -0.040059622 1.0200001
0.3149088 -0.040059622 1.0200001
0.32513347 -0.040059622 1.0200001
0.33535814 -0.040059622 1.0200001
0.34217456 -0.040059622 1.0200001
0.35353532 -0.044603918 1.0200001
0.25898337 -0.038083844 1.0280001
0.2644853 -0.034406036 1.0262105
0.27497602 -0.034498364 1.0236002
0.28493148 -0.034460735 1.0225
0.2949183 -0.034637999 1.0224211
0.30506864 -0.03425711 1.0224118
0.31486526 -0.034680597 1.0215001
0.32492608 -0.034169503 1.0213335
0.33494115 -0.03461808 1.0211765
0.34429753 -0.033922702 1.0203531
0.35353532 -0.037787475 1.0200001
0.26648971 -0.02610635 1.028077
0.27498773 -0.025654979 1.026647
0.28504783 -0.025261214 1.0261582
0.29499471 -0.025432905 1.0258124
0.30513942 -0.025421258 1.02535
0.3150987 -0.025395716 1.0243125
0.3251248 -0.025377402 1.0235499
0.33516362 -0.025360415 1.0228751
0.34501898 -0.025331259 1.0217
0.35126317 -0.02529067 1.0200001
0.26955131 -0.019783333 1.029
0.27569592 -0.018795472 1.0287143
0.28565323 -0.01831438 1.0284547
0.29524916 -0.017300712 1.0282309
0.30482063 -0.016329333 1.028125
0.31490353 -0.0151721 1.0274
0.32488677 -0.015157307 1.0264
0.33491379 -0.015146052 1.0256
0.34487501 -0.015132131 1.0246501
0.35018849 -0.018537063 1.0235
0.3188335 -0.0083223581 1.029
0.32642081 -0.0075569451 1.0288334
0.33559486 -0.0055942736 1.028125
0.34479022 -0.0048057139 1.0270001
0.35070175 -0.0082900068 1.0250001
0.33831716 0.0008464221 1.029
0.34461296 0.0036674589 1.0288463
0.34748593 0.010015202 1.029
-0.6740464 -0.18143545 1.0306001
-0.67511332 -0.17532991 1.0319287
-0.66718417 -0.17279176 1.0301667
-0.68247354 -0.1624615 1.03625
-0.67482358 -0.16430037 1.0339413
-0.66488391 -0.16462086 1.0316999
-0.65559119 -0.16436693 1.0301001
-0.6445142 -0.16205676 1.0300001
-0.63533652 -0.16205676 1.0300001
-0.68294024 -0.15771787 1.0366668
-0.67539209 -0.15479268 1.035125
-0.66508305 -0.15453942 1.0334376
-0.65483487 -0.15544221 1.0318
-0.64468896 -0.1550938 1.0314783
-0.63476503 -0.15577899 1.0319545
-0.62519681 -0.15550269 1.0322
-0.61534125 -0.15492104 1.0325001
-0.60487312 -0.15433194 1.0334119
-0.59516037 -0.15486 1.0343685
-0.6745609 -0.14439307 1.0358001
-0.66518563 -0.14450037 1.0357502
-0.6550349 -0.1443025 1.0350909
-0.64488822 -0.14449286 1.0349545
-0.63507801 -0.14442217 1.0351906
-0.62492561 -0.14573617 1.0345
-0.61459136 -0.14500615 1.034778
-0.60501921 -0.1448002 1.0357392
-0.59505892 -0.1443859 1.037087
-0.58562648 -0.14592582 1.0381054
-0.57791853 -0.148019 1.0388334
-0.67653877 -0.13842629 1.037143
-0.66634715 -0.1380136 1.039
-0.65463448 -0.13751718 1.0381668
-0.64520633 -0.13678996 1.0385001
-0.63534385 -0.13666876 1.0385556
-0.62443054 -0.13692872 1.0373751
-0.61540329 -0.13712336 1.0372857
-0.60478032 -0.13680324 1.0386
-0.59575576 -0.1380136 1.039
0.25061369 -0.084662594 1.0328335
0.25111008 -0.075107016 1.0333
-0.24508551 -0.068249457 1.034
-0.23500231 -0.068331957 1.0352501
-0.22616649 -0.066684611 1.0335001
-0.21518156 -0.06595888 1.0342
-0.20420702 -0.065525509 1.0346
-0.19496235 -0.064940065 1.0342224
-0.18466724 -0.063373327 1.03425
-0.1774787 -0.061458103 1.036
0.25182495 -0.064452589 1.0346668
-0.17347029 -0.056378514 1.03275
-0.16874008 -0.052259073 1.0366668
0.25301272 -0.056070119 1.0345001
-0.16722657 -0.044565562 1.0368334
0.25448093 -0.04487098 1.0336429
0.016408008 -0.031525172 1.0382501
0.025622692 -0.032635752 1.0367501
0.034841321 -0.032615937 1.0361249
0.045279384 -0.032653339 1.0372999
0.055634741 -0.031472038 1.0365
0.064932942 -0.031502403 1.0375001
0.074248955 -0.031532764 1.0385001
0.080069765 -0.031547945 1.039
0.25568494 -0.034624841 1.0341333
-0.042283103 -0.024300702 1.0383751
-0.034451179 -0.025730046 1.037625
-0.02554075 -0.025239384 1.0378571
-0.015236175 -0.023751002 1.0384545
-0.0040199021 -0.023813477 1.0381112
0.0051680878 -0.025214965 1.0367858
0.01519167 -0.025647502 1.03425
0.02549939 -0.025585067 1.0317501
0.034411587 -0.026366783 1.0312308
0.045033488 -0.026731532 1.0316668
0.055712517 -0.026080621 1.0318573
0.064604089 -0.02559858 1.03225
0.075072184 -0.025639433 1.0339
0.08556246 -0.02567713 1.0354376
0.091355458 -0.025684806 1.03575
0.25658998 -0.025988413 1.034857
0.26205513 -0.024400918 1.0304288
-0.041805953 -0.018423369 1.0385001
-0.034274288 -0.015569936 1.0377896
-0.025207913 -0.015326068 1.03775
-0.014813364 -0.015334945 1.03828
-0.0044019269 -0.01531814 1.0371001
0.08546868 -0.015274999 1.0343001
0.091254026 -0.015280323 1.0346
0.2576516 -0.015307301 1.0364668
0.26487339 -0.015350142 1.0320477
0.2745412 -0.013218166 1.0310625
0.28453949 -0.012715599 1.0304546
0.29513717 -0.011775175 1.0303
0.30537683 -0.010624869 1.0300001
0.085707776 -0.0049209082 1.0371875
0.091553912 -0.0049245558 1.0380001
0.258497 -0.0056182286 1.038
0.26460707 -0.0047315303 1.0356317
0.27489561 -0.0051605646 1.0337777
0.28500816 -0.0046468507 1.0333334
0.29494667 -0.0051014158 1.0324705
0.30499911 -0.0047140568 1.0317895
0.31462991 -0.0046621114 1.031
0.32454318 -0.00338982 1.0306154
0.33290988 -0.0014471781 1.0300001
0.083294168 0.0022431659 1.0388
0.26539868 0.0040648766 1.0376667
0.27491245 0.004316296 1.0362501
0.28514844 0.00431395 1.0357001
0.29527742 0.00431024 1.0348126
0.30461475 0.0041041817 1.0340588
0.31483427 0.0044886973 1.0338948
0.32501221 0.0041006906 1.033
0.33446917 0.0046785204 1.0312779
0.3417052 0.0069657057 1.0300001
0.26776654 0.012135261 1.0387501
0.27547646 0.013577597 1.038375
0.28483027 0.013913167 1.038
0.29487139 0.014722191 1.0374399
0.30511254 0.0147148 1.0369
0.31486514 0.01440072 1.0368636
0.32510912 0.01501539 1.0367825
0.33522668 0.014485258 1.0342084
0.34422454 0.014881175 1.0315263
0.29878727 0.021684887 1.039
0.30573067 0.021684887 1.039
0.33601987 0.023767067 1.0380001
0.34430763 0.025103318 1.0366876
0.34612212 0.030932844 1.0386667
-0.57084554 -0.15204664 1.0400001
-0.56398255 -0.15385245 1.0407333
-0.54756445 -0.15597941 1.0464286
-0.5828923 -0.14092651 1.0400001
-0.57413501 -0.14448757 1.0405295
-0.5654453 -0.14501213 1.0423043
-0.55521083 -0.14483579 1.0460953
-0.54955685 -0.1485472 1.0480001
-0.68283707 -0.13237585 1.0447501
-0.67476588 -0.13390611 1.0416923
-0.66490954 -0.13371406 1.0415834
-0.655173 -0.13346808 1.0411667
-0.64467305 -0.13252899 1.041375
-0.63501287 -0.13244931 1.04075
-0.62540191 -0.1316876 1.0408334
-0.61354512 -0.13226131 1.0405715
-0.60472816 -0.13241778 1.0405
-0.59481359 -0.13381134 1.0411333
-0.58492404 -0.13496815 1.0418422
-0.57468498 -0.13526821 1.0432105
-0.56449223 -0.13536876 1.0453999
-0.55672336 -0.13601258 1.0479093
-0.68325782 -0.1269892 1.0477778
-0.67509592 -0.12626758 1.0471874
-0.6651845 -0.12586607 1.0467061
-0.65523255 -0.12490528 1.0464545
-0.64510155 -0.12487967 1.0462857
-0.63495308 -0.12515193 1.0458636
-0.62477714 -0.12487827 1.04535
-0.61522746 -0.12483139 1.04495
-0.60514736 -0.1246722 1.0445002
-0.59506881 -0.12494516 1.0450433
-0.58509368 -0.12510638 1.0463915
-0.5750069 -0.12601407 1.0473809
-0.56544954 -0.1273711 1.0482501
-0.55864936 -0.12921605 1.049
-0.62018365 -0.11831121 1.049
-0.61419624 -0.11828302 1.04875
-0.60470647 -0.11708646 1.0485002
-0.59536391 -0.11708646 1.0485001
-0.58746922 -0.1183112 1.049
-0.2052784 -0.068803906 1.0424
-0.1951279 -0.068909511 1.044
-0.18479587 -0.06779816 1.0447501
-0.175337 -0.063670866 1.0438751
0.24932721 -0.065490067 1.0451251
-0.17099237 -0.058663558 1.041
-0.16598153 -0.055323567 1.0445715
0.25082368 -0.054027036 1.0428751
0.026059916 -0.042483039 1.0477142
0.034721382 -0.042138003 1.0474286
0.041115705 -0.04119857 1.049
0.25126442 -0.04446847 1.0434999
-0.062161911 -0.032464847 1.0436667
-0.056159668 -0.03362307 1.0459001
-0.044855505 -0.033906993 1.0453571
-0.034654539 -0.034021687 1.04375
-0.025364989 -0.034037795 1.04425
-0.015250713 -0.033916146 1.045643
-0.0044337735 -0.032891363 1.044875
0.0048760851 -0.034065325 1.0450834
0.01500631 -0.035697065 1.0441428
0.025121346 -0.037596807 1.0426667
0.035030887 -0.037434608 1.0417501
0.04442646 -0.037529629 1.0443751
0.055216406 -0.036530446 1.0442144
0.065043442 -0.036157895 1.0443635
0.074624024 -0.035181981 1.04375
0.085036471 -0.034001909 1.0431539
0.092539772 -0.0347418 1.0454286
0.25153521 -0.035208825 1.044625
-0.062122703 -0.028571561 1.0430001
-0.055164889 -0.025091875 1.0432222
-0.046962004 -0.026257478 1.0410001
-0.022946261 -0.029261613 1.0400001
-0.014333348 -0.028253853 1.0407777
-0.0049133799 -0.028292859 1.0408572
0.0025374242 -0.029261613 1.0400001
0.25210509 -0.024542579 1.0445834
-0.061642341 -0.010810547 1.0480001
-0.05548038 -0.014052583 1.0462
-0.045798451 -0.014093876 1.0415558
-0.038004801 -0.010728023 1.0400001
0.25281641 -0.014707527 1.0443847
-0.061701156 -0.008484114 1.049
-0.054081496 -0.0064356951 1.0485001
-0.044936568 -0.0051417788 1.045158
0.25416991 -0.0052876086 1.0438572
-0.042967297 0.0031976842 1.048
-0.034720186 0.0043564984 1.0456874
0.086085826 0.0054933783 1.0406923
0.091818519 0.0043363529 1.041
0.25597084 0.0043472471 1.04375
0.26084933 0.0066472171 1.0400001
0.085068598 0.014809434 1.0435199
0.09214928 0.015988644 1.0447501
0.25677606 0.014445554 1.0454444
0.26374406 0.015699703 1.0410668
0.27397728 0.019002944 1.0400001
0.28401628 0.019389059 1.0400001
0.091385022 0.025862515 1.0474285
0.25770646 0.024447341 1.0471112
0.26455095 0.025524832 1.0434444
0.27499127 0.02504386 1.0418421
0.2852844 0.025428113 1.0416472
0.29456758 0.025445597 1.0412667
0.30446893 0.026189594 1.041077
0.31515211 0.02548191 1.0416667
0.32506537 0.02522335 1.041625
0.33320796 0.026877975 1.0408889
0.25843316 0.032408956 1.049
0.26473153 0.034654744 1.0461999
0.27490649 0.034614883 1.0450001
0.28454384 0.034407638 1.0449412
0.29484829 0.034788877 1.0446841
0.30516946 0.034615997 1.0450001
0.31476292 0.03464726 1.0459374
0.32508484 0.034471933 1.0462108
0.335141 0.034587607 1.0441111
0.34466246 0.035375807 1.0416875
0.26628777 0.043983046 1.048
0.27524227 0.045414038 1.0473335
0.28499314 0.045213789 1.04785
0.29441825 0.044480775 1.0479474
0.30484039 0.043629814 1.048375
0.31553301 0.041736599 1.0485001
0.32528222 0.042128202 1.0485556
0.33554256 0.044165079 1.0479
0.34490222 0.04537195 1.0463334
0.35022572 0.040394112 1.044
0.27479041 0.052271307 1.049
0.282969 0.052271307 1.049
0.34656233 0.053719312 1.04875
-0.5508678 -0.14305076 1.0505
-0.54705161 -0.145054 1.0547895
-0.55241382 -0.13407236 1.0516667
-0.548522 -0.13531569 1.0559
-0.6929183 -0.12110802 1.0530001
-0.686629 -0.12290595 1.0505557
-0.67574084 -0.12076298 1.0500001
-0.66755438 -0.12076298 1.0500001
-0.57399541 -0.12076298 1.0500001
-0.56425917 -0.12223558 1.0506001
-0.55467868 -0.12464146 1.0526667
-0.54864824 -0.12515797 1.0575001
-0.69357628 -0.11887514 1.054
-0.68533778 -0.11502104 1.0521668
-0.67517954 -0.11536473 1.0522354
-0.6650036 -0.11493194 1.0520588
-0.65474713 -0.11501139 1.0515294
-0.64507794 -0.11519359 1.0519412
-0.63494563 -0.11514865 1.0521668
-0.62500191 -0.11488237 1.0518667
-0.6149767 -0.11389786 1.0514168
-0.60483402 -0.11265643 1.05075
-0.59450579 -0.11311885 1.0506999
-0.58459651 -0.11436386 1.0514001
-0.57520849 -0.11515604 1.0522224
-0.56507993 -0.11524218 1.053579
-0.55432624 -0.1155325 1.0561304
-0.54824805 -0.11943906 1.059
-0.69270426 -0.10265695 1.0562501
-0.68479639 -0.10501816 1.0552729
-0.67484212 -0.10515524 1.0554761
-0.66493785 -0.10471686 1.0555714
-0.65477711 -0.10482268 1.0554546
-0.64471173 -0.105282 1.0557728
-0.634799 -0.1047885 1.0562856
-0.62496686 -0.10490439 1.0563334
-0.61488396 -0.1049775 1.0559524
-0.60492265 -0.10492122 1.0554001
-0.59506154 -0.10482418 1.0554999
-0.58520412 -0.10532468 1.0562273
-0.57518935 -0.106745 1.057
-0.56478763 -0.10732769 1.0576923
-0.556633 -0.10814337 1.058125
-0.69516122 -0.096247129 1.0582001
-0.68530762 -0.096856087 1.0585556
-0.67475665 -0.097107902 1.0584445
-0.66406429 -0.095598526 1.0584168
-0.65481037 -0.094556183 1.05775
-0.64508021 -0.094512194 1.0572501
-0.63469058 -0.094543844 1.0576003
-0.62541461 -0.095283225 1.0587693
-0.61548018 -0.098207861 1.059
-0.6048646 -0.098207861 1.059
-0.59542853 -0.098207861 1.059
-0.65381432 -0.088182017 1.059
-0.64482117 -0.085823737 1.0584615
-0.6351645 -0.085576177 1.0583891
-0.62766844 -0.087985426 1.059
-0.052769333 -0.041525856 1.0573334
-0.044514123 -0.041512765 1.057
-0.035036914 -0.041444033 1.05525
-0.025632566 -0.041444037 1.05525
-0.015075276 -0.041504908 1.0568001
-0.0044900523 -0.041571677 1.0585001
0.0049330178 -0.041532401 1.0575001
0.014641813 -0.043571088 1.0550002
0.021527555 -0.043618321 1.051
0.03881593 -0.043576822 1.0500001
0.045315821 -0.042715423 1.0534286
0.054327946 -0.042653002 1.056
0.063876756 -0.042130668 1.0555714
0.07542751 -0.041434217 1.0550001
0.08486677 -0.042631414 1.0555
0.090574279 -0.042550363 1.0535001
-0.053136528 -0.037944086 1.0512859
-0.044324063 -0.038991489 1.0525
-0.034879483 -0.038917392 1.0505
-0.025523255 -0.038926654 1.05075
-0.014230627 -0.03858931 1.0521667
-0.0044635874 -0.037803479 1.052
0.0049096807 -0.038991485 1.0525
0.010748234 -0.03889887 1.0500001
0.069222592 -0.03889887 1.0500001
0.075070038 -0.03889887 1.0500001
0.084425934 -0.03889887 1.0500001
0.090273373 -0.03889887 1.0500001
0.24933249 -0.035558935 1.0550001
0.24933247 -0.024983428 1.0550001
0.24886645 -0.014448894 1.0580001
0.250036 -0.01438061 1.0530001
0.24910165 -0.00620597 1.059
0.2507365 -0.0042167385 1.0526667
0.25123629 0.0043864232 1.053125
0.25203025 0.015540895 1.054
0.25310543 0.025803639 1.0545385
0.091169514 0.035605993 1.0513334
0.25544408 0.035220619 1.0532143
0.25634953 0.044341169 1.0548751
0.26247162 0.046716671 1.0502001
0.29727262 0.049982164 1.0500001
0.30452344 0.049046572 1.0500001
0.31533468 0.046603642 1.0500001
0.3253403 0.047058444 1.0500001
0.33294198 0.04939742 1.0500001
0.25791392 0.053715859 1.0564547
0.26435739 0.055619549 1.0526001
0.27526146 0.057043545 1.0508001
0.28614548 0.056378294 1.0508572
0.29530296 0.05590127 1.0513124
0.30505905 0.05559022 1.0519413
0.31474778 0.054442659 1.0519093
0.32501489 0.055301514 1.0520453
0.33515361 0.055907905 1.0514376
0.3430779 0.057032544 1.0506002
0.26574343 0.065122917 1.0567647
0.2749415 0.065440692 1.0540626
0.28483465 0.065144449 1.0535001
0.29542032 0.065699823 1.0540557
0.30557573 0.065462299 1.0544376
0.31508347 0.065485857 1.0548126
0.32453945 0.065497577 1.0550001
0.33474973 0.065289654 1.0546317
0.34395251 0.065730922 1.0543847
0.26797384 0.07164178 1.059
0.27563182 0.073932208 1.0580002
0.28521085 0.075062811 1.0573126
0.29442319 0.075008593 1.0565625
0.30499649 0.075003952 1.0565
0.31571835 0.07503549 1.0569375
0.32534724 0.075084247 1.0576252
0.3347505 0.075080015 1.0575626
0.34437537 0.074840896 1.0571177
0.2874358 0.081667632 1.059
0.31466252 0.084197454 1.0586667
0.32526442 0.08208888 1.059
0.335206 0.08225739 1.059
0.34493229 0.084099963 1.0588572
0.63535458 0.10725481 1.0562857
0.64511687 0.10553257 1.0540527
0.65496927 0.10529231 1.0534999
0.66502792 0.10539913 1.0545627
0.67506337 0.10549869 1.0555626
0.68488312 0.10581181 1.0557501
0.69518274 0.10663712 1.0551668
0.70514059 0.10672096 1.0560001
0.71488863 0.10677186 1.0565
0.72503644 0.10676406 1.0564286
0.73493677 0.10672095 1.0559999
0.74452108 0.10669009 1.0556926
0.75086385 0.10456927 1.0580001
0.62889439 0.11560068 1.0572857
0.63499653 0.11447211 1.0529566
0.66552079 0.11448128 1.051625
0.67513114 0.11452167 1.052
0.68450481 0.11452169 1.052
0.69487309 0.11471781 1.0521053
0.70568001 0.11463055 1.0530002
0.71550363 0.1144546 1.0532942
0.72498804 0.11462326 1.0529377
0.73482519 0.1147346 1.0522633
0.74384654 0.11424145 1.0519233
0.62860739 0.12230357 1.0585001
0.70458949 0.12413275 1.0540001
0.71504945 0.12397179 1.0542108
0.72521216 0.12431197 1.0537648
0.73506474 0.12375414 1.053
0.74414742 0.12432469 1.0527859
0.7150721 0.13396597 1.0569413
0.72542548 0.13444981 1.0566502
0.73501366 0.13486744 1.0561905
0.74477959 0.1351945 1.0554782
0.71500862 0.14005344 1.059
0.72468066 0.14099705 1.059
-0.54492515 -0.12533316 1.0645556
-0.55112702 -0.11010686 1.0600001
-0.54633504 -0.11464378 1.0642728
-0.58182329 -0.10066185 1.0600001
-0.57395893 -0.1013772 1.0604286
-0.56437999 -0.10188996 1.0605001
-0.55395126 -0.10313969 1.0612143
-0.54689258 -0.10534302 1.0655625
-0.69298285 -0.092247404 1.0610001
-0.68518347 -0.092483521 1.0610001
-0.67549115 -0.092451259 1.0606251
-0.66757643 -0.091828674 1.06025
-0.62211072 -0.091828674 1.06025
-0.61491507 -0.093802556 1.060643
-0.6044575 -0.093496442 1.0611539
-0.59437943 -0.094058856 1.0616429
-0.58478993 -0.095202431 1.0620555
-0.57515162 -0.094867542 1.0635883
-0.56508541 -0.095001899 1.0635295
-0.55470031 -0.095166489 1.0646
-0.54782677 -0.096605174 1.0673751
-0.70170528 -0.084274143 1.0677999
-0.69441622 -0.08461123 1.0661054
-0.68484217 -0.084791213 1.0652103
-0.67482185 -0.085842803 1.0636667
-0.66494215 -0.085256614 1.0622667
-0.65525681 -0.084189601 1.0607274
-0.64675766 -0.081771843 1.0600001
-0.63140953 -0.081771843 1.0600001
-0.62421751 -0.084906958 1.0610001
-0.61483479 -0.085412547 1.063579
-0.60478044 -0.085880041 1.0644708
-0.59484148 -0.084959738 1.0657369
-0.58508331 -0.084970683 1.0666958
-0.57504547 -0.084511854 1.0676668
-0.56484973 -0.084631734 1.0676819
-0.5554778 -0.086834028 1.0680668
-0.69154036 -0.077703536 1.069
-0.68461758 -0.078149833 1.0686001
-0.67487556 -0.077818878 1.0676364
-0.66488582 -0.075950958 1.0667332
-0.655442 -0.074899353 1.0649445
-0.64493883 -0.074856035 1.0624499
-0.63475037 -0.074932508 1.0619999
-0.62501633 -0.074993581 1.0644
-0.6151877 -0.075612746 1.0673045
-0.60479307 -0.076457262 1.0682502
-0.59590137 -0.076736301 1.0683078
-0.58628702 -0.07722728 1.069
-0.57485676 -0.077703536 1.069
-0.56652224 -0.077703536 1.069
-0.65377074 -0.06644129 1.0684286
-0.64487857 -0.064682722 1.0675
-0.6349833 -0.064739428 1.066889
-0.62588167 -0.06646724 1.0683
-0.70397842 -0.053841248 1.068
-0.69694871 -0.052262861 1.0681667
-0.32181442 -0.058323938 1.063
-0.70184243 -0.047021315 1.0644001
-0.69422215 -0.045309577 1.0644286
-0.68838418 -0.043365262 1.0678002
-0.054700289 -0.044965938 1.0643334
-0.044833139 -0.045372486 1.064625
-0.035311107 -0.045324959 1.0635
-0.02582166 -0.04530365 1.0630001
-0.015185133 -0.045367241 1.0645001
-0.0053140763 -0.04501386 1.0655
0.0057544881 -0.044942837 1.0638334
0.010891543 -0.046528004 1.064
0.065687008 -0.045478556 1.0631429
0.084572829 -0.047215655 1.0616667
0.24833329 -0.004340197 1.0638001
0.24888468 0.0044272277 1.063125
0.24918325 0.015102966 1.0644001
0.24883962 0.025858751 1.0680001
0.25010136 0.025744576 1.0632501
0.2490726 0.035408158 1.069
0.25104704 0.035185415 1.06225
0.25134248 0.044703282 1.0635
0.25325078 0.05486583 1.0637144
0.25597554 0.064914078 1.0647224
0.26209447 0.068604715 1.0606667
0.25783125 0.075092882 1.0678002
0.26416561 0.075702682 1.0636842
0.2735135 0.078055292 1.0606667
0.26576945 0.084993154 1.0670002
0.27501726 0.084973551 1.0634376
0.28428447 0.085516207 1.0610001
0.31781319 0.088238187 1.0600001
0.3258414 0.086821437 1.0600002
0.33552253 0.087057561 1.0600001
0.34260631 0.088238187 1.0600001
0.26793376 0.091899902 1.0682501
0.2752775 0.094764978 1.067
0.28499052 0.094290189 1.064
0.32456705 0.094081074 1.0616471
0.33497196 0.094320908 1.062
0.34494385 0.094440639 1.0610001
0.64702821 0.098374352 1.0675001
0.65515816 0.098167002 1.06525
0.66449481 0.098143965 1.0650001
0.67430192 0.098190039 1.0655
0.68427694 0.098259158 1.0662501
0.69426477 0.09832827 1.067
0.70426768 0.098397389 1.0677501
0.71445024 0.098489538 1.06875
0.72414172 0.098512575 1.069
0.73485756 0.098512575 1.069
0.74539816 0.098489538 1.06875
0.75490206 0.097400822 1.068
0.27756086 0.10086241 1.0686667
0.33499876 0.10399716 1.0666002
0.34394148 0.10179487 1.0645555
0.62751913 0.10785972 1.0646667
0.63438827 0.10313322 1.0645001
0.64458531 0.10064248 1.0621668
0.65490866 0.10013883 1.0610001
0.66436255 0.10013883 1.0610001
0.67429364 0.10020961 1.0617501
0.68509585 0.10070544 1.062
0.69486672 0.1012512 1.0616667
0.7046985 0.10158312 1.0620002
0.71407181 0.10149752 1.062875
0.72501516 0.1015383 1.0633
0.73537987 0.10149753 1.062875
0.74423707 0.10141411 1.0620002
0.75223362 0.10123477 1.0626001
0.33122739 0.11160971 1.069
0.62511861 0.11547895 1.0644287
0.62593883 0.12530731 1.064
0.62682623 0.13498029 1.0655
0.63403124 0.13531084 1.0612667
-0.54343832 -0.09495946 1.074381
-0.70432502 -0.08018472 1.0703334
-0.55334067 -0.081551261 1.070889
-0.54651576 -0.085155942 1.0743811
-0.7044518 -0.074241169 1.0719234
-0.69546509 -0.074039169 1.0711333
-0.68489337 -0.073254138 1.0709233
-0.67470521 -0.071858659 1.0706251
-0.66716027 -0.070625648 1.0700001
-0.61233926 -0.070625648 1.0700001
-0.60518861 -0.070625648 1.0700001
-0.59486002 -0.071420155 1.0700001
-0.58470482 -0.072853073 1.0702142
-0.57433701 -0.073025681 1.0702499
-0.56455404 -0.073718794 1.0704285
-0.55513018 -0.074358866 1.0723
-0.54792541 -0.07467901 1.0769168
-0.70336103 -0.064819038 1.0725001
-0.69524187 -0.06484101 1.072875
-0.68545222 -0.06461478 1.0735556
-0.67498404 -0.064941175 1.0734118
-0.66487026 -0.0647894 1.0720717
-0.65627867 -0.062843636 1.0708573
-0.64928383 -0.061091539 1.0700001
-0.63021564 -0.061091539 1.0700001
-0.62340724 -0.062817559 1.0710001
-0.61488956 -0.064708129 1.0718824
-0.60516071 -0.064789735 1.0720626
-0.59479642 -0.065024555 1.0715556
-0.58441925 -0.064741679 1.07125
-0.5747394 -0.064727269 1.0710001
-0.56509244 -0.064544544 1.0714709
-0.55479807 -0.065092586 1.0744784
-0.54873347 -0.065179422 1.0785
-0.70295399 -0.057950083 1.0706668
-0.69439381 -0.056070443 1.0712
-0.68529785 -0.055346727 1.0741501
-0.6753422 -0.055228818 1.0760001
-0.66508383 -0.05540416 1.0753126
-0.65516943 -0.055325158 1.0737857
-0.64523721 -0.05524217 1.0721877
-0.63475227 -0.055177141 1.0721579
-0.62486011 -0.05560169 1.0740001
-0.61518443 -0.055206355 1.0755882
-0.60512882 -0.055397861 1.0751874
-0.59532416 -0.05558316 1.0741333
-0.58530599 -0.055279188 1.0728751
-0.57527602 -0.055234108 1.072
-0.56510723 -0.055290669 1.0731002
-0.55543911 -0.055732794 1.0764999
-0.68490344 -0.046099633 1.0733501
-0.67614895 -0.04633927 1.0780001
-0.66468173 -0.047949638 1.0782223
-0.65487552 -0.046755437 1.0776924
-0.64488703 -0.045688771 1.0771766
-0.63489747 -0.046352178 1.0771877
-0.62504989 -0.047789738 1.0779091
-0.61480105 -0.048362754 1.0785
-0.60443062 -0.047619373 1.0780001
-0.59469831 -0.046148743 1.0773335
-0.58474505 -0.045603797 1.0757999
-0.57472724 -0.045827661 1.0754445
-0.56510592 -0.046111137 1.0771178
-0.55821276 -0.048952159 1.0782501
-0.6832363 -0.035025012 1.07468
-0.67878085 -0.038771432 1.079
-0.59225219 -0.039973218 1.079
-0.58495647 -0.038028359 1.0784
-0.57571983 -0.038501881 1.0782
-0.56821638 -0.039973218 1.079
-0.68337566 -0.024257237 1.0749
-0.67935133 -0.011120008 1.0780001
-0.17354631 0.0080757588 1.0760001
-0.17365383 0.01288123 1.0766667
0.094817393 0.010462917 1.075
0.24761438 0.014028766 1.0730001
0.24779896 0.024804074 1.0738
0.24784513 0.035573773 1.074
0.24869077 0.045080472 1.0725
-0.062672906 0.05567332 1.0745555
0.24900976 0.054707866 1.0738752
-0.17403015 0.068187647 1.079
-0.062061422 0.060779124 1.0755
-0.054692484 0.064201251 1.0766
-0.045225464 0.064278312 1.0738751
0.24876821 0.064524099 1.0780001
0.25102705 0.06473662 1.0730001
-0.052233148 0.071370602 1.0786667
-0.04502511 0.07356634 1.0772858
-0.035468221 0.074248299 1.0745883
0.25356761 0.075178161 1.0738236
-0.041833553 0.080205515 1.079
-0.035391565 0.083334275 1.0779999
0.25595784 0.085495815 1.0744117
0.2613453 0.087920487 1.0705001
0.25713682 0.095194854 1.0757142
0.26440194 0.095761262 1.071
0.27075732 0.098604731 1.0700001
0.63539994 0.098787956 1.0757143
0.6439383 0.097199559 1.0742501
0.65473217 0.095407434 1.0743001
0.66523671 0.09517961 1.0732223
0.67514426 0.095248684 1.0724999
0.68502104 0.095293097 1.0730002
0.69498587 0.095348746 1.0736251
0.70512581 0.095426306 1.0745001
0.71528274 0.095504172 1.0753751
0.72494841 0.095515124 1.0755
0.73513883 0.09562356 1.0752223
0.74490076 0.095401093 1.0761429
0.75362492 0.094981678 1.0762501
0.76205623 0.093938932 1.0780001
0.25708249 0.10530966 1.077625
0.26442853 0.1048923 1.0733501
0.27422914 0.10516687 1.0709286
0.28117326 0.10737801 1.0703334
0.3398796 0.10813883 1.0700001
0.34503245 0.10771117 1.0736667
0.62566513 0.10500821 1.0745715
0.63164997 0.10114554 1.0716667
0.26490915 0.11466436 1.0753
0.27521303 0.11446581 1.0734375
0.33504519 0.11490599 1.0715386
0.3437579 0.1145977 1.0746666
0.62223786 0.11427444 1.0748571
0.33518162 0.12394921 1.0748
0.34388 0.12357263 1.0775555
0.62197202 0.12515043 1.0741999
0.33452058 0.13359556 1.0773001
0.62187809 0.13507186 1.0734705
-0.54329234 -0.075200953 1.0844376
-0.54522091 -0.065736473 1.0841765
-0.55120891 -0.053290918 1.0810001
-0.5470866 -0.056118958 1.0850587
-0.67323524 -0.041062813 1.0805715
-0.66525996 -0.042228073 1.0808183
-0.65525436 -0.040830724 1.0805
-0.64452577 -0.040010266 1.08
-0.63377386 -0.040724102 1.0807143
-0.62458551 -0.041983739 1.0813
-0.61515278 -0.042462524 1.0812309
-0.60498154 -0.041961066 1.0807
-0.5964098 -0.040010266 1.08
-0.56279904 -0.040513657 1.0806
-0.55429387 -0.04448365 1.0835601
-0.5490014 -0.047072172 1.0876001
-0.68003905 -0.030415196 1.0810001
-0.67507416 -0.03383683 1.0827
-0.66529071 -0.034132458 1.0844376
-0.65506101 -0.034103148 1.0835
-0.6448245 -0.034157481 1.0830002
-0.63490158 -0.034120962 1.0841111
-0.62509042 -0.034179348 1.0859445
-0.61477184 -0.034177214 1.085875
-0.60507041 -0.034399372 1.084077
-0.59527302 -0.033811413 1.0818667
-0.58518726 -0.032328807 1.0806
-0.57439214 -0.032828517 1.0812309
-0.56504697 -0.034096189 1.0833
-0.55647749 -0.035077129 1.0869286
-0.68003905 -0.024395119 1.0810001
-0.67526054 -0.024286307 1.0860001
-0.66505301 -0.025763532 1.0880001
-0.65508473 -0.025751907 1.0875454
-0.64497817 -0.025922414 1.0874287
-0.63573998 -0.026675884 1.0881251
-0.62563837 -0.028214434 1.0890001
-0.61509478 -0.027724082 1.0888002
-0.60513741 -0.024781633 1.0874668
-0.59465247 -0.02424418 1.0851333
-0.58476675 -0.024460683 1.0840627
-0.57504225 -0.024432946 1.0856843
-0.56558102 -0.026355507 1.0874166
-0.55892748 -0.028214434 1.0890001
-0.1700072 -0.020840751 1.0840001
-0.16977194 -0.024428412 1.0825
