# .PCD v0.7 - Point Cloud Data file format
VERSION 0.7
FIELDS x y z
SIZE 4 4 4
TYPE F F F
COUNT 1 1 1
WIDTH 1450
HEIGHT 1
VIEWPOINT 0 0 0 1 0 0 0
POINTS 1450
DATA ascii
-0.01558115 -0.36373529 1.04125
-0.0049115312 -0.36174044 1.0405715
0.00485879 -0.36089617 1.041
0.015802251 -0.3617717 1.0405556
0.025716767 -0.36188117 1.0405
0.035001598 -0.36201143 1.040875
0.044280533 -0.36321357 1.041
0.054152437 -0.36266994 1.0404615
0.063350759 -0.36112869 1.0400001
0.22480612 -0.36528829 1.0447334
-0.53166211 -0.35489506 1.0445001
-0.12284603 -0.35821724 1.0489999
-0.11423285 -0.35651699 1.0485834
-0.10488097 -0.35532048 1.0485001
-0.095538437 -0.35532051 1.0485002
-0.085024253 -0.35530362 1.04845
-0.074508563 -0.35527825 1.0483751
-0.065769196 -0.35635078 1.0486667
-0.057027664 -0.35899615 1.049
-0.042422995 -0.35841197 1.049
-0.0341774 -0.35588393 1.0483077
-0.025240051 -0.35558698 1.046579
-0.014915535 -0.35541755 1.0453601
-0.004432837 -0.35519186 1.0446999
0.0048729246 -0.3549886 1.0440999
0.014929705 -0.35518485 1.0437828
0.025271969 -0.35460782 1.0439092
0.035102569 -0.35492224 1.0438999
0.044399302 -0.35488814 1.0438001
0.054823864 -0.35464373 1.0430799
0.064947486 -0.3547543 1.041889
0.074159011 -0.3542946 1.0410001
0.084396064 -0.35291046 1.0404545
0.095227413 -0.35136718 1.0402501
0.10447217 -0.35128275 1.0400001
0.11026391 -0.35128275 1.0400001
0.21925409 -0.35492721 1.0405
0.22395131 -0.35509929 1.0451
-0.53034264 -0.34781647 1.0435002
-0.52922225 -0.34343633 1.0455
-0.092078872 -0.34964916 1.049
-0.085068628 -0.34964916 1.049
-0.075721644 -0.34964916 1.049
-0.024702663 -0.34887025 1.0489999
-0.014959087 -0.34831414 1.0485002
-0.0040595145 -0.34794319 1.0485557
0.0052254726 -0.34636 1.0481428
0.014038042 -0.3447338 1.0475264
0.024706332 -0.34541622 1.0467999
0.03541673 -0.34517768 1.0471178
0.044329308 -0.3451387 1.0469999
0.054988015 -0.34521824 1.0462
0.065658987 -0.34546769 1.045
0.074661955 -0.34575272 1.0443
0.085106306 -0.34565246 1.0439998
0.095529392 -0.34550297 1.0435501
0.10475795 -0.34527203 1.04285
0.11489194 -0.34470129 1.0417084
0.12511151 -0.3430056 1.041
0.13436684 -0.34204349 1.0407273
0.14508411 -0.34102091 1.0405
0.15551426 -0.34102091 1.0405
0.1647855 -0.34102091 1.0405
0.17138033 -0.34068918 1.0406667
0.2166642 -0.34418863 1.0415714
0.22330196 -0.34498185 1.04725
0.24592614 -0.34499079 1.0455
-0.52867216 -0.33570859 1.0444168
0.015991446 -0.33846855 1.04875
0.02508387 -0.33801645 1.0486429
0.034385368 -0.33842799 1.0486251
0.045515008 -0.33811694 1.0486667
0.055306274 -0.33567527 1.0485417
0.065598175 -0.33535433 1.0481499
0.074927047 -0.33530608 1.0480001
0.084275454 -0.33651435 1.048125
0.094774202 -0.33649001 1.0480502
0.10519952 -0.33506507 1.04725
0.11487276 -0.33483729 1.0455455
0.12479027 -0.33424315 1.0443333
0.13504219 -0.33502844 1.0434999
0.14467247 -0.33421531 1.0439047
0.15522288 -0.33416417 1.0450416
0.16542596 -0.33420011 1.0445499
0.17520653 -0.33487377 1.0433332
0.18511373 -0.3347578 1.0430743
0.19477485 -0.33470562 1.0424999
0.20483539 -0.3349058 1.0420587
0.21451636 -0.33450499 1.0447369
0.22083449 -0.33764175 1.0480001
0.24614695 -0.33554241 1.0415001
0.057213299 -0.32680097 1.0489999
0.065262087 -0.32706061 1.0489999
0.072661787 -0.32861844 1.049
0.10771298 -0.32861844 1.049
0.11525181 -0.32593074 1.0485001
0.12535442 -0.32511929 1.0473185
0.13545653 -0.32556301 1.0467002
0.14492846 -0.32472381 1.04775
0.15465261 -0.32502574 1.0480587
0.16507602 -0.32466635 1.0481582
0.17526899 -0.32472453 1.0477501
0.18456134 -0.32464734 1.0475001
0.19509983 -0.32535875 1.0466667
0.20530686 -0.32540855 1.0461999
0.2137385 -0.3256458 1.0475385
0.24708895 -0.32169795 1.0455
0.12757534 -0.31927148 1.049
0.13575396 -0.31927148 1.049
0.14510092 -0.31927148 1.049
0.1668327 -0.31880412 1.049
0.175946 -0.31740209 1.0489999
0.18481439 -0.31574732 1.0489374
0.19498663 -0.31577563 1.0484211
0.20539758 -0.31538218 1.0484118
0.21223196 -0.3174428 1.04875
0.24607188 -0.3154577 1.0428334
0.18833075 -0.30992445 1.049
0.19467334 -0.30892301 1.0489999
0.20274068 -0.30914554 1.0489999
0.24498525 -0.30422688 1.0415
0.24539691 -0.29311642 1.0432501
0.24712777 -0.28448102 1.0456667
-0.58494747 -0.41690654 1.052875
-0.57508647 -0.41743854 1.052
-0.62077487 -0.40845686 1.0500001
-0.61531788 -0.40754631 1.0506667
-0.60509145 -0.40705109 1.0512002
-0.59678459 -0.40884584 1.0510001
-0.55284715 -0.40767318 1.0516001
-0.54693139 -0.40406689 1.0553335
-0.54241741 -0.39525497 1.0541
-0.53816122 -0.38507029 1.0545001
-0.53539407 -0.37500483 1.0546001
-0.45024899 -0.37197727 1.056
-0.44389433 -0.3738794 1.0532001
-0.43550497 -0.3747189 1.0514706
-0.42553517 -0.37374154 1.0505716
-0.4152793 -0.37203565 1.0500001
-0.40441975 -0.37103325 1.0500001
-0.39436215 -0.37150103 1.0500001
-0.3864876 -0.37181291 1.0500001
-0.3419691 -0.37196884 1.0500001
-0.33425048 -0.3733722 1.0500001
-0.32489458 -0.37337223 1.0500001
-0.31553873 -0.37337223 1.0500001
-0.30543861 -0.37252167 1.0500001
-0.29518965 -0.37150103 1.0500001
-0.26330161 -0.37181291 1.0500001
-0.25425759 -0.37290442 1.0500001
-0.24575931 -0.37259257 1.0500001
-0.23679323 -0.37181291 1.0500001
-0.15297998 -0.37103328 1.0500001
-0.14830205 -0.37103325 1.0500001
-0.53306007 -0.3651855 1.0548888
-0.45229486 -0.36626372 1.0584286
-0.44497412 -0.36489689 1.0569412
-0.4343192 -0.36503267 1.0544446
-0.42448601 -0.36516172 1.0526667
-0.41438708 -0.36455122 1.0515501
-0.40476671 -0.36432618 1.0508999
-0.39536485 -0.36429152 1.0508001
-0.38526368 -0.3640103 1.0508693
-0.37505713 -0.36388195 1.0506841
-0.36500445 -0.36202034 1.051
-0.35474381 -0.36270866 1.0509999
-0.34478134 -0.36475608 1.0512609
-0.33479202 -0.36460358 1.0516999
-0.32532778 -0.36450034 1.0514001
-0.31521881 -0.36422202 1.0514784
-0.30482313 -0.36487016 1.0515456
-0.2948387 -0.36444765 1.0512501
-0.28534928 -0.36429149 1.0507998
-0.27494189 -0.36353126 1.0508573
-0.26487532 -0.36469585 1.0510453
-0.25506502 -0.36450028 1.0514001
-0.24569662 -0.36450025 1.0514001
-0.23535465 -0.36473837 1.0509131
-0.22508264 -0.36404765 1.050091
-0.21566451 -0.36214516 1.0500001
-0.20560691 -0.36167738 1.0500001
-0.196251 -0.36167738 1.0500001
-0.16506469 -0.36245704 1.0500001
-0.15510365 -0.36507371 1.0502105
-0.14553781 -0.36401632 1.0500001
-0.13719191 -0.3622621 1.0500001
-0.5309189 -0.35597071 1.0538751
-0.52932614 -0.35164118 1.0573334
-0.44439498 -0.35508978 1.0578127
-0.43549606 -0.35507989 1.0566667
-0.42524776 -0.35525697 1.05525
-0.41550037 -0.35496169 1.0543751
-0.40520117 -0.35448095 1.0537224
-0.39491928 -0.35472566 1.0534708
-0.38498098 -0.3548637 1.0534707
-0.37537089 -0.35477254 1.0538127
-0.36526451 -0.35479158 1.0544212
-0.3547903 -0.35518047 1.0544118
-0.345079 -0.35500309 1.0545
-0.33566335 -0.35498226 1.0544376
-0.32546291 -0.3545562 1.0539446
-0.31494501 -0.35498428 1.0536667
-0.30492899 -0.35475147 1.05375
-0.29546958 -0.35466808 1.0535001
-0.28512043 -0.35443804 1.0533683
-0.27462414 -0.35478485 1.0532353
-0.26502442 -0.35475147 1.0537502
-0.25552946 -0.35460493 1.0533127
-0.24538043 -0.35418305 1.0528333
-0.23452727 -0.35506725 1.05225
-0.22470324 -0.35526624 1.0518
-0.2152904 -0.35519773 1.0516
-0.20520858 -0.3549841 1.0518695
-0.19469647 -0.35543823 1.0513636
-0.18471465 -0.35496211 1.0509001
-0.17533372 -0.3549284 1.0508
-0.16489987 -0.35514462 1.05144
-0.15445006 -0.35535076 1.0520502
-0.14507642 -0.35535032 1.0520502
-0.13563833 -0.35518083 1.05155
-0.12561652 -0.35367584 1.0507367
-0.11520362 -0.35165289 1.0503334
-0.06351421 -0.35290623 1.0500001
-0.054449663 -0.35418993 1.0505
-0.044680398 -0.35382557 1.0505625
-0.037794624 -0.3524048 1.0502501
0.2283272 -0.35357428 1.0502501
0.23544148 -0.35511029 1.0565625
0.24561939 -0.35459235 1.0573077
0.25188965 -0.35606369 1.0551428
-0.52854985 -0.34486395 1.0542222
-0.44553098 -0.34670112 1.0578334
-0.43454447 -0.34706137 1.0583334
-0.42485231 -0.34678614 1.0578823
-0.41468683 -0.34676918 1.0574119
-0.40471706 -0.34561667 1.0573684
-0.39511549 -0.34506992 1.0571429
-0.38482583 -0.34531975 1.0572174
-0.37458345 -0.34561297 1.0574286
-0.36499226 -0.3454935 1.0577501
-0.354996 -0.34649336 1.0580001
-0.34468564 -0.34807888 1.0579287
-0.33412102 -0.34690306 1.0577334
-0.32458106 -0.34591758 1.0574443
-0.31530279 -0.34526405 1.05705
-0.30557546 -0.34500802 1.0569525
-0.29489169 -0.34522733 1.0563334
-0.28450313 -0.34503645 1.0563501
-0.27516878 -0.34513444 1.05665
-0.26550159 -0.34494659 1.0567621
-0.25497368 -0.34488028 1.0558696
-0.2444897 -0.34485093 1.0550953
-0.23480937 -0.3446283 1.0551002
-0.22546145 -0.34470984 1.0553501
-0.21529071 -0.34440234 1.0553478
-0.20468181 -0.34476745 1.0545454
-0.19455923 -0.3452808 1.0535001
-0.18501794 -0.34499416 1.0526252
-0.17564818 -0.34501472 1.0526876
-0.16520731 -0.34524825 1.0534
-0.15457186 -0.34519523 1.0542942
-0.14550327 -0.34464526 1.05515
-0.13512535 -0.34445429 1.0551666
-0.12466683 -0.34468883 1.0538501
-0.11436948 -0.34551096 1.0522223
-0.10516654 -0.3457455 1.0513501
-0.095932223 -0.34531569 1.0507894
-0.085178435 -0.3442488 1.05035
-0.074430428 -0.34453624 1.0501765
-0.06529896 -0.34546784 1.0504999
-0.054795187 -0.34446281 1.051
-0.044262618 -0.34448335 1.0510623
-0.034700241 -0.34528217 1.0506842
-0.025853893 -0.34381986 1.0505713
-0.014989999 -0.34318256 1.0506666
-0.0047755954 -0.34287092 1.0503637
0.0041211392 -0.34140626 1.0500001
0.22801995 -0.34390128 1.052875
0.23360793 -0.34602171 1.0572001
0.24608445 -0.34705716 1.0582001
-0.52804816 -0.33487833 1.054
-0.38311645 -0.33882818 1.059
-0.37603939 -0.33882818 1.059
-0.30173016 -0.33882818 1.059
-0.29394537 -0.33835638 1.059
-0.28521699 -0.33764866 1.059
-0.27578092 -0.33764869 1.059
-0.26453438 -0.33700559 1.0588335
-0.25418603 -0.33535534 1.0584668
-0.24488218 -0.33497137 1.0580003
-0.23546866 -0.3349911 1.0580627
-0.2257977 -0.33630949 1.0585002
-0.21394104 -0.33707798 1.0584445
-0.20451543 -0.33573824 1.0578462
-0.19512273 -0.3356865 1.0565501
-0.1854969 -0.33530614 1.0553501
-0.175117 -0.33511838 1.055375
-0.1646744 -0.33564639 1.0557141
-0.15527725 -0.33539957 1.056421
-0.14491464 -0.33466896 1.0576315
-0.13445158 -0.33516058 1.0579413
-0.12442325 -0.3351675 1.0575296
-0.1151015 -0.3356865 1.0565501
-0.10556227 -0.33528978 1.0553
-0.09525948 -0.33451641 1.0538261
-0.084934287 -0.33531982 1.0518948
-0.074713171 -0.33517683 1.05125
-0.065338641 -0.33513737 1.0511249
-0.054795183 -0.33509794 1.051
-0.04427487 -0.33521682 1.0513749
-0.034928173 -0.33541682 1.052
-0.025308238 -0.33495852 1.0526112
-0.015025876 -0.3346239 1.0532001
-0.0044675381 -0.33449662 1.0527999
0.0049066013 -0.33523589 1.0514375
0.013993523 -0.33413979 1.0505385
0.024367539 -0.33290252 1.0504546
0.035638645 -0.33351174 1.0503637
0.044195566 -0.33314186 1.0500001
0.050510801 -0.33127069 1.0500001
0.084425934 -0.33127069 1.0500001
0.094951317 -0.33127069 1.0500001
0.22585404 -0.33488765 1.0535001
0.2317297 -0.33557841 1.0586667
0.24718079 -0.33267215 1.0565715
0.25027344 -0.33018476 1.054
-0.52823418 -0.32499939 1.0541111
-0.24511361 -0.32939211 1.059
-0.23685704 -0.32939211 1.059
-0.1932151 -0.32939211 1.059
-0.1843373 -0.32817087 1.0584445
-0.17423318 -0.32682648 1.0583334
-0.16480303 -0.32682645 1.0583335
-0.15573907 -0.3271344 1.0586364
-0.14584598 -0.32867366 1.0588572
-0.11300834 -0.32939211 1.059
-0.10406384 -0.32667744 1.0585456
-0.094589524 -0.32541251 1.0567222
-0.084133051 -0.32530397 1.0542108
-0.074837998 -0.32517794 1.053
-0.065427341 -0.32503968 1.0525501
-0.05486219 -0.32495677 1.0522799
-0.044312257 -0.32494766 1.0522501
-0.034960598 -0.32517913 1.0530001
-0.025873592 -0.32510206 1.0544446
-0.015064219 -0.32489809 1.0559
-0.0044796076 -0.32479426 1.0555626
0.0049186866 -0.32548636 1.0540001
0.014296358 -0.32516244 1.0529501
0.024835536 -0.32495543 1.0522799
0.035367545 -0.32480803 1.0518001
0.044442348 -0.32506448 1.0509444
0.053487681 -0.32404113 1.0500001
0.066215344 -0.32291722 1.0500001
0.075425074 -0.32500976 1.0502857
0.084527269 -0.32463759 1.0512501
0.095102794 -0.32476997 1.0516801
0.10531665 -0.32404023 1.051
0.11310487 -0.32257617 1.0502501
0.21838434 -0.32374567 1.0502501
0.22423653 -0.32508487 1.0537857
0.23215833 -0.32588974 1.0585715
0.24420029 -0.324963 1.0548334
0.25027344 -0.3278369 1.054
-0.52854919 -0.31522232 1.0550001
-0.093219161 -0.31836858 1.058625
-0.084314771 -0.3152954 1.0574445
-0.075309239 -0.31484821 1.0559444
-0.06556426 -0.31514624 1.0547501
-0.054939233 -0.31484753 1.0537502
-0.044367485 -0.31479183 1.0535625
-0.035007779 -0.31505334 1.0544375
-0.025400722 -0.31501475 1.0565
-0.015095322 -0.31496194 1.0580802
-0.0044884407 -0.31484884 1.0577
0.0047454746 -0.31480974 1.0567368
0.014330537 -0.31537029 1.0555
0.02487858 -0.31496742 1.0541502
0.035407927 -0.31462431 1.0530002
0.044998497 -0.31490931 1.0517777
0.05523219 -0.31514829 1.0508401
0.065773979 -0.31518072 1.0509499
0.075203024 -0.31545076 1.0518501
0.084708184 -0.31477278 1.0535002
0.094494738 -0.31516385 1.0541178
0.10491894 -0.31464231 1.0536841
0.11506678 -0.3155396 1.05215
0.12409271 -0.31479082 1.0513889
0.13490634 -0.31417376 1.0514998
0.14539461 -0.31406271 1.051125
0.15469047 -0.31509107 1.0506499
0.16469939 -0.31393427 1.0503
0.17517814 -0.31209111 1.0500001
0.18383236 -0.31021991 1.0500001
0.20956108 -0.31021991 1.0500001
0.2164889 -0.31466973 1.0516876
0.224445 -0.31571081 1.057
0.23022948 -0.319956 1.059
0.24376403 -0.31541875 1.0547693
-0.52880794 -0.30539191 1.0557778
-0.074032828 -0.30794156 1.0582501
-0.065293573 -0.30639675 1.0575
-0.055069808 -0.3050015 1.05624
-0.044453271 -0.30481714 1.0556
-0.0350831 -0.30513468 1.0567001
-0.026546244 -0.30607873 1.0582144
-0.015108891 -0.30816087 1.059
-0.0044932878 -0.30816087 1.059
0.0056475298 -0.30686456 1.0586001
0.014622856 -0.30595431 1.0577223
0.024922675 -0.30494452 1.0560399
0.03523745 -0.30521923 1.0541177
0.044793148 -0.30525917 1.0530626
0.054798648 -0.30535662 1.0525001
0.065264344 -0.30504429 1.0532224
0.075637795 -0.30495766 1.0542779
0.084873013 -0.30480352 1.05555
0.094362929 -0.30507821 1.0565
0.10492603 -0.30500233 1.05624
0.11542847 -0.30477363 1.05545
0.12482716 -0.3047592 1.0554
0.13492301 -0.30490014 1.0548261
0.14537269 -0.30517015 1.0534706
0.15494415 -0.30506027 1.0523751
0.16511333 -0.30499893 1.0515264
0.1754681 -0.30445498 1.0509999
0.18506762 -0.30448022 1.050375
0.1941448 -0.30365103 1.0503078
0.20518243 -0.3044036 1.0508235
0.21495573 -0.30458787 1.0542667
0.22101501 -0.30686718 1.0578001
0.24609025 -0.30499202 1.0562
-0.053230166 -0.29784444 1.0586667
-0.04457562 -0.29740426 1.0585001
-0.035860982 -0.29819658 1.0588
0.026355155 -0.29639819 1.0584167
0.035713285 -0.29543737 1.056579
0.044895023 -0.29536915 1.0554501
0.054286785 -0.2953001 1.0552
0.064889424 -0.29541147 1.0556
0.075278096 -0.29515648 1.0565555
0.085049637 -0.29483646 1.0577501
0.094272606 -0.29587299 1.0585386
0.1047272 -0.29709542 1.0585456
0.1157622 -0.29740426 1.0585001
0.12550974 -0.29642677 1.0584546
0.13451278 -0.29480156 1.0576251
0.14474261 -0.29522294 1.0549202
0.1548976 -0.295021 1.0533158
0.16435099 -0.29573557 1.0525626
0.17523062 -0.29500747 1.0526955
0.18546835 -0.29458603 1.0526501
0.19483015 -0.29455757 1.0525502
0.20447198 -0.29493469 1.0539001
0.21331461 -0.2959711 1.057
0.24542235 -0.29243281 1.0533334
0.037370127 -0.28863066 1.05875
0.045483075 -0.28718337 1.0582001
0.054771278 -0.28600296 1.0580715
0.065046206 -0.28551918 1.0581501
0.075359605 -0.28702018 1.0585456
0.083380312 -0.28869894 1.059
0.13663316 -0.28767049 1.0588334
0.14499338 -0.28514117 1.0567501
0.15549456 -0.28493497 1.054706
0.16461486 -0.28564024 1.05425
0.17415117 -0.28540096 1.0547367
0.18506603 -0.28465348 1.0556318
0.19553816 -0.2850394 1.056375
0.20458739 -0.28605062 1.0577693
0.21135731 -0.2892887 1.059
0.24682856 -0.28365439 1.0526667
0.14688945 -0.27865317 1.0582858
0.15559722 -0.27614939 1.0578126
0.16512212 -0.27591997 1.0575
0.17434302 -0.27684724 1.0579231
0.18419375 -0.27792117 1.0581819
0.19448116 -0.27880386 1.0588572
0.24824066 -0.2741628 1.0544546
0.24750362 -0.2653521 1.0555556
0.25156611 -0.26222044 1.0545001
-0.53698754 -0.38501233 1.0642223
-0.53442401 -0.37523907 1.064889
-0.53166354 -0.36548385 1.0641112
-0.52961206 -0.36107808 1.069
-0.45381442 -0.36141315 1.0606667
-0.53018922 -0.35905147 1.0630001
-0.52886093 -0.35451818 1.0645001
-0.45195448 -0.35803816 1.0600001
-0.44959325 -0.35803816 1.0600001
0.2398919 -0.35095441 1.0600001
-0.52745891 -0.34498692 1.0646669
-0.45256224 -0.34138778 1.067
-0.44414052 -0.34174237 1.0622001
-0.43549034 -0.34238079 1.0608749
-0.42480013 -0.3415094 1.0600001
-0.41535512 -0.3415094 1.0600001
-0.40945199 -0.3415094 1.0600001
-0.35514322 -0.3415094 1.0600001
-0.34451759 -0.34269002 1.0600001
-0.33578098 -0.34198165 1.0600001
-0.32798886 -0.3415094 1.0600001
0.23766509 -0.34453666 1.0606
0.24275388 -0.34410456 1.0613334
-0.52741104 -0.33467802 1.0645715
-0.45205075 -0.33475718 1.0686001
-0.44504541 -0.33424306 1.0674118
-0.43505308 -0.33562171 1.0642223
-0.42499682 -0.33523214 1.0629092
-0.41487497 -0.33517957 1.0623999
-0.40472603 -0.33527517 1.0616819
-0.39464337 -0.3348799 1.0614502
-0.38531592 -0.33397841 1.0612354
-0.37504253 -0.33368877 1.0610002
-0.36497602 -0.33477995 1.0611304
-0.3548474 -0.335219 1.0618094
-0.34534624 -0.33522698 1.0625499
-0.33536771 -0.33493146 1.0626365
-0.32487142 -0.33518922 1.0620909
-0.31466636 -0.33524725 1.0619047
-0.30510217 -0.33440509 1.0616113
-0.29544625 -0.33332121 1.0610002
-0.28568864 -0.33229843 1.06075
-0.27499947 -0.33223072 1.0605334
-0.26545182 -0.33244616 1.0601429
-0.25833195 -0.33206439 1.0600001
-0.22324565 -0.33190572 1.0603335
-0.21504445 -0.33196285 1.0603638
-0.20648181 -0.33103931 1.0605
0.23602021 -0.33459735 1.0611668
0.24377705 -0.33625054 1.0615002
-0.52788323 -0.32475424 1.0631251
-0.44129753 -0.32877615 1.0685
-0.43440974 -0.32681182 1.0677693
-0.42512959 -0.32467049 1.06675
-0.4151347 -0.32491884 1.0658334
-0.40511513 -0.32434264 1.0660478
-0.39509377 -0.32473737 1.0658572
-0.3845354 -0.32519117 1.0645626
-0.37454605 -0.32517526 1.0638236
-0.36473581 -0.32498193 1.0638751
-0.35510555 -0.32495457 1.0644706
-0.34475711 -0.3255614 1.065158
-0.33445621 -0.32474044 1.0661581
-0.32530943 -0.32465526 1.0667001
-0.31551212 -0.32441887 1.0666668
-0.30586666 -0.32538235 1.0651876
-0.29564744 -0.32475713 1.0638236
-0.2847769 -0.32480553 1.0626842
-0.27416492 -0.3243717 1.0618751
-0.2643244 -0.32506895 1.0611054
-0.25495872 -0.32519332 1.0606999
-0.24546079 -0.32395163 1.0605001
-0.23499186 -0.32413059 1.0607001
-0.225279 -0.32515305 1.0617895
-0.21534467 -0.32484749 1.0634376
-0.20527019 -0.32486153 1.0630555
-0.19524489 -0.3249076 1.0617001
-0.18456683 -0.32326221 1.0609232
-0.17458989 -0.32158986 1.0605
-0.16514042 -0.32158986 1.0605
-0.15528928 -0.32196659 1.0604444
-0.14472708 -0.3236928 1.0609447
-0.13453703 -0.32539126 1.0613501
-0.12513342 -0.32552895 1.0617999
-0.115909 -0.32492927 1.0615555
-0.10627902 -0.32257408 1.0605
0.23644544 -0.32376167 1.0604287
0.24225314 -0.32970315 1.0600001
-0.5281859 -0.31488118 1.064
-0.42340618 -0.3172622 1.069
-0.41455674 -0.31774232 1.0680834
-0.40530831 -0.31773844 1.069
-0.3937211 -0.31774634 1.0685714
-0.38473704 -0.3165766 1.0680001
-0.37540343 -0.31531352 1.06725
-0.36517325 -0.31483474 1.0667272
-0.35476947 -0.31561393 1.0672175
-0.34502074 -0.31608087 1.0680556
-0.33609268 -0.31687477 1.0685002
-0.3248204 -0.31821471 1.069
-0.31333208 -0.31767893 1.0688
-0.30383089 -0.31655794 1.0679376
-0.29440686 -0.31513605 1.0666502
-0.28450155 -0.31469294 1.06515
-0.27486226 -0.31512094 1.0637647
-0.26498294 -0.31524301 1.063
-0.25551119 -0.31524301 1.0630001
-0.24536878 -0.31496331 1.0629445
-0.23484413 -0.31548965 1.0629447
-0.22496206 -0.314899 1.0650002
-0.21522851 -0.3148399 1.0666958
-0.20465237 -0.31545591 1.0666364
-0.19448388 -0.31492877 1.0659499
-0.18480326 -0.31461793 1.0649002
-0.1751661 -0.31435174 1.064
-0.16591467 -0.31481326 1.0637778
-0.15497512 -0.31497526 1.0637001
-0.14470632 -0.31473306 1.0645239
-0.13502491 -0.31470773 1.0652001
-0.1255697 -0.31479627 1.0655
-0.11617482 -0.31480548 1.0646843
-0.10510986 -0.31512442 1.0626
-0.094883054 -0.31359184 1.0607501
-0.087141305 -0.31081313 1.0600001
0.22765671 -0.31280455 1.06075
0.23504905 -0.31458485 1.0639473
0.24117045 -0.31420732 1.0621667
-0.52868968 -0.30508682 1.06475
-0.37312672 -0.30766895 1.0690001
-0.36411184 -0.30749887 1.0690001
-0.35577726 -0.3086895 1.069
-0.2937853 -0.30724624 1.0687143
-0.28529596 -0.30486614 1.0681251
-0.27519199 -0.30536127 1.066579
-0.26538867 -0.30515081 1.0657618
-0.25479659 -0.30558369 1.0657917
-0.24431367 -0.30538806 1.0658001
-0.23480527 -0.30537382 1.0657499
-0.22521119 -0.304712 1.0673685
-0.21541107 -0.30680752 1.0686667
-0.20456481 -0.30749887 1.0690001
-0.19464855 -0.30641973 1.0686364
-0.18503812 -0.30540159 1.0682143
-0.1757942 -0.30477706 1.0678126
-0.16483575 -0.30504552 1.0668638
-0.15462719 -0.30550367 1.0662
-0.14472666 -0.30447465 1.06675
-0.1353166 -0.30468845 1.0675
-0.12551372 -0.30462065 1.0679998
-0.11449587 -0.30530706 1.0670954
-0.1042238 -0.30534437 1.06565
-0.094577685 -0.30485696 1.0639501
-0.084968954 -0.30439797 1.06235
-0.076172277 -0.30320632 1.0611819
-0.067677356 -0.30202952 1.06025
-0.02397785 -0.30195844 1.0600001
-0.015130321 -0.30388147 1.0605333
-0.004499577 -0.30384803 1.0604167
0.0044421861 -0.30246136 1.0602858
0.012031223 -0.30136812 1.0600001
0.22638191 -0.30443731 1.0630715
0.23519897 -0.30595785 1.0677859
0.24299388 -0.30521113 1.064
-0.53022045 -0.29309303 1.0642501
-0.52952254 -0.29756996 1.0650002
-0.28314769 -0.2991643 1.069
-0.27443653 -0.29810375 1.0688572
-0.2646209 -0.29795048 1.0684444
-0.254453 -0.29783374 1.0685002
-0.24463879 -0.29689774 1.0686364
-0.23576628 -0.29689771 1.0686364
-0.22772878 -0.29849902 1.06875
-0.17281418 -0.29837051 1.0690001
-0.16377351 -0.29570049 1.0685333
-0.15435903 -0.29521117 1.0676252
-0.14485382 -0.29522866 1.0676876
-0.13568561 -0.29570046 1.0685333
-0.12581186 -0.29848391 1.0690001
-0.11407545 -0.2991643 1.069
-0.10411066 -0.29745266 1.0685557
-0.094687015 -0.29551476 1.0678668
-0.085341036 -0.29503655 1.0670002
-0.075515911 -0.29546186 1.0651579
-0.065091655 -0.29491553 1.0629998
-0.054871067 -0.29344589 1.0615335
-0.044680905 -0.29219708 1.0610001
-0.035003476 -0.29325202 1.0614002
-0.025798792 -0.29486418 1.0621001
-0.015168098 -0.29516968 1.0632
-0.0045126039 -0.29525295 1.0634999
0.00496154 -0.29512697 1.0630502
0.01441778 -0.29482192 1.06195
0.02289422 -0.29265168 1.0610909
0.095855616 -0.29192314 1.0600001
0.10504355 -0.29261619 1.060375
0.11485387 -0.29219705 1.0610002
0.12424809 -0.29206011 1.0605
0.2184159 -0.29319721 1.0612
0.22429609 -0.29538831 1.0652144
0.23002221 -0.2991643 1.069
0.24424529 -0.29570439 1.0644168
-0.53093028 -0.28544426 1.0642221
-0.16170143 -0.28963912 1.069
-0.15412901 -0.2879914 1.0687779
-0.14548102 -0.28767991 1.0688002
-0.13788845 -0.28963912 1.069
-0.08430922 -0.28963912 1.069
-0.07515797 -0.28875503 1.0686668
-0.06442111 -0.2863898 1.0674376
-0.054666717 -0.28465962 1.0662224
-0.044833973 -0.28489363 1.0646251
-0.035348933 -0.28491089 1.0646876
-0.025875896 -0.28506202 1.0652502
-0.015207869 -0.28526294 1.0660002
-0.0045251097 -0.28539705 1.0665002
0.0049784756 -0.2854462 1.0666876
0.014473883 -0.28527883 1.0660626
0.025430225 -0.28523907 1.0639091
0.03525845 -0.28427157 1.0617501
0.044649616 -0.28221774 1.0608001
0.053754669 -0.28094801 1.0601667
0.065159366 -0.28011689 1.0600001
0.076202728 -0.28177914 1.0603335
0.085758924 -0.28408849 1.0610626
0.094859146 -0.28538668 1.0620501
0.1042598 -0.28547668 1.063316
0.11469325 -0.28509393 1.064389
0.12536791 -0.28516665 1.0633334
0.13412556 -0.28381321 1.0612143
0.14071937 -0.28011689 1.0600001
0.20694685 -0.28161749 1.0605716
0.21566553 -0.28505623 1.0627779
0.22396909 -0.28510714 1.067889
0.2455513 -0.28475174 1.0640835
-0.051904045 -0.27810407 1.0686001
-0.044740662 -0.27653673 1.0680668
-0.035268079 -0.27531466 1.0678948
-0.025937211 -0.2750273 1.06775
-0.015234299 -0.27505073 1.0678403
-0.0049796719 -0.27626285 1.0684999
0.0045113508 -0.27810407 1.0686001
0.014507885 -0.27879226 1.0685002
0.025500376 -0.2771413 1.067875
0.036134984 -0.27530241 1.0667778
0.045302369 -0.2743282 1.0650499
0.054489538 -0.27469814 1.0632353
0.064471878 -0.27504364 1.0624118
0.075058058 -0.2747733 1.0628947
0.08579082 -0.27498811 1.064353
0.095225453 -0.27461389 1.0661501
0.10468755 -0.27525991 1.0676843
0.11444888 -0.276346 1.0682499
0.12527089 -0.27517101 1.0675418
0.13510805 -0.2746866 1.0643889
0.14413588 -0.2741116 1.0615715
0.15393659 -0.27145594 1.0604286
0.1655125 -0.2706719 1.0600001
0.17555781 -0.27182975 1.0605714
0.18501481 -0.27276561 1.0608001
0.19507907 -0.27411097 1.0611335
0.20530878 -0.2748878 1.0628824
0.21478312 -0.27436244 1.0657501
0.2211832 -0.27598453 1.0680001
0.24391325 -0.27522692 1.0656924
-0.023982989 -0.26781055 1.0690001
-0.015846886 -0.2676121 1.069
0.046646912 -0.26812381 1.0686667
0.055521995 -0.26727614 1.0676669
0.064404525 -0.26652914 1.0670626
0.074898966 -0.26552284 1.067
0.085385635 -0.2650612 1.0678504
0.094967507 -0.26620227 1.0686001
0.10143207 -0.26820743 1.069
0.12762636 -0.26820743 1.069
0.13587178 -0.26579648 1.0677649
0.14500865 -0.26495135 1.0655
0.15455334 -0.26477945 1.0639049
0.16492434 -0.26453477 1.0638262
0.17539845 -0.26444626 1.0643811
0.18527265 -0.26482654 1.0649999
0.19491771 -0.26503786 1.0658501
0.20456883 -0.26523766 1.0666502
0.2131713 -0.26579478 1.0680834
0.2441961 -0.26564112 1.0654
0.14623377 -0.25780782 1.0686666
0.15488344 -0.25728011 1.0681251
0.16482806 -0.2564877 1.0678
0.17416978 -0.25706011 1.0682002
0.18522938 -0.25725174 1.0685556
0.19549337 -0.25868222 1.069
0.20382792 -0.25868222 1.069
0.24539116 -0.25523764 1.0656667
0.24699031 -0.24707294 1.0651668
-0.52773976 -0.35508487 1.0744547
-0.52665693 -0.34518531 1.0751251
-0.52678907 -0.33510628 1.0756668
-0.45621821 -0.3340053 1.0700001
-0.52737987 -0.32493356 1.0741668
-0.45243248 -0.32427505 1.0755714
-0.44578269 -0.32427952 1.0728
-0.43688932 -0.32258528 1.0703335
-0.52768964 -0.31554282 1.073909
-0.45023251 -0.31743836 1.0785
-0.44421849 -0.31563637 1.0764616
-0.43514556 -0.31458893 1.0728889
-0.42526856 -0.31393096 1.0706364
-0.41470018 -0.31269908 1.0705001
-0.4048191 -0.31366116 1.0704546
-0.39606285 -0.31338507 1.0704
-0.38769183 -0.31195766 1.0700001
-0.34300071 -0.31136179 1.0700001
-0.33477485 -0.31236476 1.0703752
-0.32493493 -0.31406161 1.0705
-0.31485727 -0.31366113 1.0704546
-0.30672401 -0.31203043 1.0702502
-0.52863079 -0.30481336 1.074
-0.44307682 -0.30498359 1.0780909
-0.43454722 -0.30509791 1.0749286
-0.42522994 -0.30506197 1.0730002
-0.4150894 -0.30470979 1.0729091
-0.40496621 -0.30510277 1.0731429
-0.39491051 -0.30490616 1.07245
-0.38539746 -0.30480644 1.0711668
-0.37580359 -0.30423471 1.0700833
-0.36445242 -0.30301946 1.0700001
-0.35477063 -0.30468661 1.0703846
-0.34496751 -0.30437985 1.0710001
-0.33481303 -0.30504045 1.0718262
-0.32480988 -0.30503386 1.0729001
-0.31529501 -0.30507609 1.0730503
-0.30536386 -0.30470625 1.0717499
-0.29666144 -0.30339864 1.0705001
-0.21349578 -0.3026222 1.0700001
-0.20475619 -0.30301946 1.0700001
-0.19593713 -0.30230442 1.0700001
-0.18807149 -0.3018277 1.0700001
0.23738797 -0.3018277 1.0700001
-0.53023958 -0.2924152 1.0722001
-0.52963603 -0.29702789 1.0768
-0.44168201 -0.29635093 1.0785714
-0.43438309 -0.29496363 1.0766429
-0.42470551 -0.29503846 1.0754118
-0.41458139 -0.29519534 1.0754706
-0.40461162 -0.29495835 1.075375
-0.3947086 -0.29471821 1.0745001
-0.38442847 -0.29468974 1.0731176
-0.37466854 -0.29521185 1.0719501
-0.36506554 -0.29517061 1.0718002
-0.3555648 -0.29521206 1.0719502
-0.34521601 -0.29444757 1.0724763
-0.33443981 -0.2943418 1.073125
-0.32521844 -0.29465005 1.07425
-0.31579405 -0.29478735 1.0747501
-0.305603 -0.29432184 1.0738235
-0.29546997 -0.29521042 1.0719446
-0.28573188 -0.29414293 1.0711
-0.27511609 -0.29330549 1.0708002
-0.26453027 -0.29249737 1.0707501
-0.25488961 -0.29238388 1.0703334
-0.24577528 -0.29161948 1.0704446
-0.2354427 -0.29161948 1.0704446
-0.22465765 -0.29415527 1.0709999
-0.21471004 -0.2952525 1.0721
-0.2052443 -0.2953763 1.0725501
-0.19564195 -0.29530722 1.0723001
-0.18542975 -0.29479903 1.0716363
-0.17518927 -0.2938399 1.0705293
-0.16781151 -0.29229361 1.0700001
-0.13205862 -0.29229361 1.0700001
-0.12426103 -0.29340294 1.0704705
-0.11427582 -0.29372355 1.070875
-0.10503604 -0.29224977 1.0706364
-0.09873537 -0.29123729 1.0705001
0.23498957 -0.29533845 1.072
0.24133748 -0.29274812 1.0716667
-0.53082889 -0.28497916 1.0738751
-0.44082695 -0.28994498 1.079
-0.43413681 -0.28788799 1.0785002
-0.42480966 -0.28727344 1.0780001
-0.41520426 -0.28727347 1.0780002
-0.40538722 -0.28571904 1.0779999
-0.39568222 -0.28464594 1.07715
-0.38593686 -0.28464976 1.0762106
-0.37538216 -0.28506485 1.075
-0.36507905 -0.28508019 1.0745295
-0.35469982 -0.28542387 1.0745556
-0.34444323 -0.2851443 1.0745001
-0.33490756 -0.28517732 1.074625
-0.32528868 -0.28523704 1.0756471
-0.31475908 -0.28481162 1.0764761
-0.3043969 -0.28562844 1.0755293
-0.29423049 -0.28519291 1.0746876
-0.28460449 -0.2851426 1.0745001
-0.27520949 -0.28412834 1.0752002
-0.26567566 -0.28479701 1.0745295
-0.25535506 -0.28473595 1.0737648
-0.24547975 -0.2848773 1.0735002
-0.23501301 -0.2850036 1.0732632
-0.22468628 -0.28504336 1.0741251
-0.21517357 -0.28504774 1.0754707
-0.20541973 -0.28409857 1.076318
-0.19492435 -0.28448674 1.0761367
-0.18478355 -0.2849167 1.0753158
-0.17427909 -0.28477815 1.073125
-0.16467248 -0.28490636 1.0711111
-0.15509318 -0.28266209 1.0704545
-0.14474557 -0.28238758 1.0704
-0.13518783 -0.28463998 1.0709473
-0.12518036 -0.28505051 1.0723501
-0.11452898 -0.28481176 1.0732502
-0.10494188 -0.28474554 1.0730001
-0.095112935 -0.2854484 1.0721052
-0.085927464 -0.28475165 1.0717059
-0.075370446 -0.28367642 1.071353
-0.064953901 -0.2813015 1.0705001
0.22793905 -0.28524828 1.0704
0.23448336 -0.28476444 1.0730625
0.24129993 -0.28435043 1.0715001
-0.53082889 -0.27541137 1.0738752
-0.39395726 -0.2779271 1.079
-0.38361412 -0.27726522 1.0783001
-0.37438133 -0.27766803 1.0780001
-0.36446866 -0.27665567 1.0778
-0.35500583 -0.27633783 1.0775001
-0.34524092 -0.27541015 1.077579
-0.33551043 -0.27490252 1.0774761
-0.32521003 -0.27613208 1.0778097
-0.31478152 -0.27577409 1.0785387
-0.30477792 -0.27649909 1.078125
-0.29547998 -0.27698183 1.0779999
-0.28598541 -0.27812275 1.0779002
-0.27498028 -0.2779271 1.079
-0.26388919 -0.27883694 1.077875
-0.25392231 -0.27781579 1.0777274
-0.24421954 -0.2768158 1.0773572
-0.23499417 -0.2763378 1.0775001
-0.22578047 -0.27690795 1.0777142
-0.21529104 -0.2773582 1.0782307
-0.20407484 -0.2779271 1.079
-0.19446054 -0.2779271 1.079
-0.18351765 -0.27773282 1.0782501
-0.17468995 -0.27648365 1.0771334
-0.16514315 -0.27472636 1.0759
-0.1555317 -0.27474535 1.073889
-0.14552389 -0.27508801 1.072625
-0.13487452 -0.27530012 1.0734501
-0.12425777 -0.2756182 1.0746876
-0.11474887 -0.27577871 1.0753126
-0.10521533 -0.27470422 1.0758002
-0.095664755 -0.27480534 1.0762001
-0.085139342 -0.27480885 1.0770001
-0.074348256 -0.27493212 1.0758097
-0.064560026 -0.27499688 1.0736471
-0.055292048 -0.2740494 1.0710771
-0.045784056 -0.27136922 1.0702001
-0.039101094 -0.27084187 1.0700001
-0.0027523153 -0.27143773 1.0700001
0.0054725846 -0.27282462 1.0703
0.014532777 -0.2733098 1.0703334
0.024073601 -0.2721602 1.0705001
0.032414053 -0.27092624 1.0703334
0.10867754 -0.27084187 1.0700001
0.11463636 -0.27084187 1.0700001
0.12059518 -0.27084187 1.0700001
0.22611697 -0.27414474 1.0708001
0.23555219 -0.27505809 1.0725
-0.53042829 -0.26504242 1.0733333
-0.16321406 -0.26831281 1.079
-0.15486212 -0.26768529 1.0775555
-0.1454514 -0.26634589 1.077
-0.13449697 -0.26593652 1.0768098
-0.12456012 -0.26548699 1.0773002
-0.11497702 -0.26552418 1.07745
-0.1057226 -0.26532978 1.0781538
-0.096402995 -0.26721165 1.0787143
-0.08870326 -0.26831281 1.079
-0.073547639 -0.26778236 1.0788
-0.064066201 -0.26573911 1.0771766
-0.054830611 -0.26482135 1.0746
-0.045371015 -0.26511121 1.0723529
-0.03556386 -0.26515946 1.071125
-0.025154481 -0.26366091 1.0705714
-0.013483387 -0.26399186 1.0704167
-0.0045433682 -0.26512924 1.0709999
0.0050047594 -0.26540741 1.0721252
0.01457791 -0.2645748 1.0736001
0.024159502 -0.26474565 1.0743001
0.034904879 -0.2645829 1.07364
0.045076992 -0.26412818 1.0717859
0.054580588 -0.26253891 1.0708573
0.064582303 -0.26130778 1.0700001
0.09637811 -0.26214299 1.0701667
0.10540021 -0.264792 1.0706002
0.11474351 -0.26512894 1.0710001
0.12402438 -0.26484123 1.0708001
0.13206044 -0.26231003 1.0702002
0.21693043 -0.26278672 1.0702001
0.2250828 -0.2648488 1.0725557
0.23486133 -0.26487109 1.0748003
0.24114545 -0.2647602 1.0715715
-0.06106215 -0.25869852 1.079
-0.054402787 -0.25585601 1.0779999
-0.045133624 -0.25537577 1.0762105
-0.035685837 -0.25529307 1.0748
-0.024889655 -0.25506499 1.0738401
-0.01411823 -0.25496131 1.0734001
-0.0045571788 -0.25513905 1.07415
0.0050199968 -0.25541216 1.0753
0.014284508 -0.25518307 1.0772144
0.023849903 -0.25693658 1.0783334
0.035653524 -0.25669643 1.0781666
0.046181984 -0.25565708 1.0763335
0.055278599 -0.25522164 1.0745001
0.064744487 -0.25479463 1.0727001
0.074237242 -0.25456923 1.07175
0.08496289 -0.25451511 1.07152
0.095742807 -0.25461763 1.0719501
0.10539263 -0.25485545 1.0729501
0.11503828 -0.25504544 1.0737499
0.12456445 -0.25496176 1.0734001
0.13494256 -0.25481835 1.0719584
0.14458625 -0.25323918 1.0711668
0.15522882 -0.25308305 1.0705001
0.1639723 -0.25268582 1.0705001
0.17473528 -0.25279516 1.0700001
0.18501997 -0.25305954 1.0704001
0.19576807 -0.2542752 1.0705
0.20599754 -0.25412145 1.0711999
0.21527824 -0.2547825 1.0726502
0.22498392 -0.25522673 1.0757059
0.23590595 -0.25579625 1.07775
0.24216728 -0.25486559 1.0739092
-0.044237126 -0.24908422 1.079
-0.03580055 -0.24770959 1.0782501
-0.024985353 -0.24645056 1.0780002
-0.014170078 -0.2462787 1.0772501
-0.0045739035 -0.24645054 1.0780001
0.0045191986 -0.24788955 1.0782858
0.011045089 -0.24908422 1.079
0.048300497 -0.24908422 1.079
0.056059185 -0.24625063 1.0780001
0.064962126 -0.24486543 1.0763125
0.074497387 -0.24467985 1.0755
0.084397577 -0.24479163 1.0750589
0.095073879 -0.24439016 1.0750526
0.10561851 -0.24462435 1.07525
0.11527269 -0.24478069 1.0759375
0.12485929 -0.24478039 1.0759375
0.13433655 -0.24458143 1.0750626
0.14509632 -0.2453475 1.0741364
0.15545775 -0.24531615 1.0740478
0.16519003 -0.24536231 1.0732502
0.17467187 -0.24524823 1.0727499
0.18420514 -0.24521437 1.0726
0.19484632 -0.2455247 1.0730835
0.20548266 -0.24486278 1.0743685
0.21556558 -0.24528301 1.0766429
0.22250809 -0.24722382 1.07875
0.24453537 -0.244993 1.0748463
0.065905847 -0.23859476 1.0786667
0.074696109 -0.23812944 1.0783751
0.084275939 -0.23684515 1.0779999
0.095050022 -0.23556753 1.07765
0.10580874 -0.23546675 1.0771875
0.11549387 -0.23564418 1.0780001
0.12512039 -0.23568508 1.0781876
0.13467257 -0.23558924 1.07775
0.14424269 -0.23553388 1.0775001
0.15477937 -0.23570625 1.0774211
0.16547716 -0.2353029 1.0774119
0.1752829 -0.23531529 1.0764999
0.18476716 -0.23517933 1.0758752
0.19444478 -0.23528826 1.076375
0.2042021 -0.23547994 1.07725
0.21201372 -0.23771995 1.0783334
0.24866456 -0.23519403 1.0741111
0.098775566 -0.22985561 1.079
0.10598628 -0.22985561 1.079
0.11199522 -0.22985561 1.079
0.16968101 -0.22985561 1.079
0.17568995 -0.22985561 1.079
0.18521726 -0.2297491 1.0785
0.19491854 -0.22985561 1.079
0.20333105 -0.22985561 1.079
0.24852502 -0.22589205 1.0735
0.24869131 -0.21756633 1.0776668
-0.52629614 -0.33482754 1.0842501
-0.52678156 -0.32546636 1.08525
-0.46090832 -0.32178685 1.0810001
-0.45729628 -0.32178685 1.0810001
-0.52747887 -0.31539747 1.0847
-0.46340999 -0.31754205 1.0846001
-0.45551363 -0.31556299 1.0820714
-0.44845292 -0.31186593 1.08
-0.52861512 -0.30517408 1.0837779
-0.45188698 -0.30426675 1.0815001
-0.44853598 -0.30470404 1.0802
-0.53026283 -0.29146349 1.0816666
-0.52968866 -0.29538667 1.0868751
-0.45446676 -0.29444668 1.0847778
-0.44682395 -0.29415366 1.0808182
-0.53045332 -0.28495532 1.082875
-0.45393419 -0.28579053 1.0837501
-0.44538605 -0.28454342 1.0813125
-0.43594462 -0.28267124 1.0806
-0.42579484 -0.28192329 1.0805
-0.41611946 -0.28189081 1.0803751
-0.4075543 -0.2805905 1.08
-0.5302664 -0.27563873 1.0821428
-0.52981371 -0.2739448 1.0880001
-0.45177856 -0.27404168 1.0847778
-0.44481292 -0.2748875 1.0850953
-0.43477911 -0.2746076 1.0848999
-0.42495552 -0.27450633 1.0845001
-0.4149867 -0.27430442 1.0836999
-0.40462443 -0.2750338 1.0818124
-0.39462721 -0.27358276 1.0808333
-0.38487723 -0.27229565 1.0805
-0.37524956 -0.27229562 1.0805001
-0.36624283 -0.27149862 1.0802
-0.35582954 -0.27096727 1.08
-0.34981501 -0.27096727 1.08
-0.32335123 -0.27096727 1.08
-0.31493089 -0.27096727 1.08
-0.30530769 -0.27096727 1.08
-0.29492763 -0.27181104 1.0801667
-0.28454527 -0.27323511 1.0809232
-0.27445513 -0.27379271 1.0816666
-0.26477665 -0.27375054 1.0815001
-0.25542358 -0.27282256 1.081
-0.24607863 -0.27189466 1.0805001
-0.23553941 -0.27096727 1.08
-0.2244281 -0.27172634 1.0802857
-0.21464349 -0.27241537 1.0804446
-0.20435821 -0.27349892 1.0805001
-0.19476093 -0.27354112 1.0806668
-0.18558471 -0.27301764 1.0805
-0.17614925 -0.27149862 1.0802
-0.53033632 -0.26395899 1.0822856
-0.52980834 -0.26775479 1.0865002
-0.45219007 -0.26837367 1.0890001
-0.44127372 -0.26837367 1.0890001
-0.43520913 -0.26837367 1.0890001
-0.42435181 -0.26730993 1.0883751
-0.41425636 -0.26633918 1.0881251
-0.40474185 -0.26585743 1.0864445
-0.39492011 -0.2649532 1.0849473
-0.38491535 -0.26472247 1.084
-0.37478027 -0.2648257 1.0839525
-0.36478999 -0.2646606 1.08375
-0.3547236 -0.26473016 1.0830953
-0.34471235 -0.26455125 1.0822631
-0.33464143 -0.26531801 1.0815002
-0.32504216 -0.26534909 1.0816251
-0.31544119 -0.26538014 1.0817502
-0.30546838 -0.26518545 1.0818236
-0.29476115 -0.26503778 1.0830454
-0.28509879 -0.26508817 1.0855
-0.2752341 -0.26510146 1.0869093
-0.26507971 -0.26538056 1.0867002
-0.25513908 -0.26511249 1.0856
-0.24490599 -0.26476902 1.0841906
-0.2349637 -0.26470655 1.0828949
-0.22469677 -0.26583162 1.0825
-0.21435304 -0.26481074 1.083316
-0.20494485 -0.26462591 1.0836002
-0.19528955 -0.26462594 1.0836
-0.18563429 -0.26462594 1.0835998
-0.17537725 -0.26421589 1.0832727
-0.16580556 -0.26428014 1.0821877
-0.15560769 -0.26316354 1.0808891
-0.14411892 -0.26134408 1.08
-0.13810442 -0.26134408 1.08
-0.10442319 -0.26134408 1.08
-0.094644092 -0.26305145 1.0807275
-0.084182546 -0.26498443 1.08075
-0.074735761 -0.26372975 1.0808182
-0.067133248 -0.26134408 1.08
-0.53124702 -0.25457987 1.0842223
-0.39440495 -0.25746125 1.0882858
-0.38512516 -0.25600758 1.0879999
-0.3757579 -0.25676343 1.0877777
-0.3650997 -0.25711143 1.0881112
-0.35474747 -0.25685772 1.0877501
-0.34455815 -0.25549462 1.0872002
-0.33509597 -0.25555736 1.0861
-0.32479137 -0.25553846 1.0855454
-0.31431475 -0.25557467 1.0851905
-0.30448562 -0.25545231 1.08565
-0.29612112 -0.25566474 1.0872858
-0.28777218 -0.25800443 1.0887501
-0.25370941 -0.25813761 1.0888002
-0.24420974 -0.25531504 1.0880001
-0.23429285 -0.25476494 1.0863531
-0.22463873 -0.2554062 1.0854502
-0.21517201 -0.25454521 1.0854119
-0.20531584 -0.25422543 1.0855626
-0.1956993 -0.25429842 1.0858752
-0.18523291 -0.25433353 1.0868421
-0.17477505 -0.25510231 1.0873752
-0.1640365 -0.25639457 1.0867141
-0.1542961 -0.25601774 1.0857779
-0.14473377 -0.25520238 1.0846001
-0.13490139 -0.25488541 1.0832499
-0.1251446 -0.25467405 1.08235
-0.11547834 -0.25462759 1.0821497
-0.10563627 -0.25460917 1.0830476
-0.094930269 -0.25521585 1.0837917
-0.08432354 -0.25518245 1.0845
-0.074623533 -0.25505275 1.08395
-0.065035678 -0.25432777 1.0819476
-0.056922182 -0.25238061 1.08025
0.017069831 -0.25172088 1.08
0.025210345 -0.25252545 1.0808752
0.033800099 -0.25243604 1.0807779
0.042330757 -0.25172088 1.08
0.22998334 -0.25172088 1.08
0.2348493 -0.25238061 1.08025
-0.53192288 -0.24462366 1.085875
-0.33332336 -0.24896686 1.0890001
-0.32414261 -0.24779657 1.0884286
-0.31498477 -0.24763963 1.0885001
-0.30614045 -0.24808203 1.0886668
-0.24114104 -0.24896686 1.0890001
-0.23405963 -0.24733667 1.0885001
-0.22488642 -0.24594019 1.0880001
-0.21543463 -0.24505869 1.0878125
-0.2056945 -0.24500294 1.0875626
-0.19486997 -0.24510109 1.0879998
-0.18497884 -0.24736527 1.0886252
-0.14289407 -0.24896686 1.0890001
-0.1351162 -0.24717204 1.0882223
-0.1253937 -0.24550672 1.0875
-0.11537071 -0.24470623 1.0874447
-0.10457754 -0.24518222 1.0871667
-0.094220176 -0.24491788 1.0871875
-0.084513493 -0.24486201 1.0869375
-0.074807018 -0.24479207 1.086625
-0.065054521 -0.24452364 1.0854375
-0.05528155 -0.24527983 1.0834501
-0.045781121 -0.2441151 1.0820589
-0.035903018 -0.24239488 1.0813334
-0.026081869 -0.24156915 1.0807142
-0.014205599 -0.24209768 1.08
-0.0045823897 -0.24209768 1.08
0.0053245681 -0.24272507 1.0811539
0.014889013 -0.24480617 1.0824739
0.024190987 -0.24518673 1.0841581
0.034779996 -0.2455087 1.0839524
0.044945549 -0.24422447 1.0823334
0.053426314 -0.24223128 1.0806
0.22552609 -0.2437714 1.0816925
0.23494571 -0.24567008 1.0837274
0.24155158 -0.24284266 1.0833334
-0.53224266 -0.23493892 1.0836923
-0.2059662 -0.23926346 1.0890001
-0.19868864 -0.23926346 1.0890001
-0.11378387 -0.23926346 1.0890001
-0.10327185 -0.23845483 1.0890001
-0.093704544 -0.23622726 1.0887692
-0.084620409 -0.23547499 1.0883126
-0.074901409 -0.23540746 1.0880001
-0.065206915 -0.23540667 1.0880001
-0.0554903 -0.23531105 1.0875626
-0.045771524 -0.23516184 1.086875
-0.035372682 -0.23461908 1.0856111
-0.024317157 -0.23559891 1.0838572
-0.014248515 -0.23558164 1.08325
-0.0045960126 -0.23558164 1.0832498
0.0050633247 -0.23468903 1.0846876
0.014745551 -0.23496015 1.0859376
0.024450835 -0.23524462 1.08725
0.034159463 -0.23539305 1.0879376
0.044999216 -0.23505957 1.0864
0.05591077 -0.23529661 1.0831054
0.064953491 -0.23355982 1.0818572
0.074883848 -0.23270597 1.0810834
0.084490091 -0.2314316 1.0807501
0.0928526 -0.23006864 1.08
0.11691064 -0.23006864 1.08
0.12533094 -0.23006865 1.08
0.13495415 -0.23006865 1.08
0.14457735 -0.23006865 1.08
0.15420057 -0.23006865 1.08
0.16382378 -0.23006865 1.08
0.20833111 -0.23006865 1.08
0.21540585 -0.23372029 1.081
0.22466069 -0.23546797 1.0855
0.23476832 -0.23873433 1.0888002
0.24558821 -0.23644239 1.0851821
-0.090738282 -0.22956005 1.0890001
-0.084153831 -0.22852039 1.0890001
-0.075778864 -0.22875142 1.0890001
-0.067692697 -0.22956005 1.0890001
-0.042221267 -0.22956005 1.0890001
-0.034932215 -0.22947574 1.0886
-0.02349495 -0.22839995 1.0884287
-0.014308094 -0.22808418 1.0877501
-0.0042851497 -0.22712556 1.0879091
0.0053584236 -0.22656706 1.0880771
0.014778023 -0.22579005 1.088375
0.023831932 -0.22652592 1.0887692
0.033465285 -0.22907488 1.0890001
0.046007864 -0.22859766 1.0887501
0.056237381 -0.22648667 1.0876924
0.06557709 -0.22539914 1.0864999
0.075163104 -0.22511432 1.085125
0.084729455 -0.2248421 1.0838126
0.094228566 -0.22446629 1.0820001
0.10502727 -0.22436257 1.0814998
0.11592312 -0.22446628 1.082
0.12562105 -0.22457001 1.0825
0.13526654 -0.22456998 1.0825002
0.1449206 -0.22458276 1.0825626
0.15464677 -0.22469869 1.0831251
0.16458815 -0.22482449 1.0827059
0.17499892 -0.22450021 1.0821668
0.18543386 -0.22421618 1.0818233
0.19537017 -0.22436257 1.0815001
0.20505497 -0.22441439 1.0817502
0.21514228 -0.22488122 1.084
0.22276665 -0.22648543 1.0878335
0.068154946 -0.21985665 1.0890001
0.075789891 -0.21810509 1.0883335
0.085380979 -0.2164797 1.0877143
0.094837606 -0.21481873 1.0867896
0.10427854 -0.21445653 1.0862499
0.11453872 -0.21484518 1.0865455
0.12515689 -0.21450482 1.0870456
0.1352479 -0.21485025 1.0869474
0.1455403 -0.21585472 1.0871875
0.15524817 -0.21709597 1.0873333
0.16496108 -0.21712905 1.0875001
0.17488755 -0.21670243 1.0872308
0.18457165 -0.21598402 1.0867647
0.19491535 -0.21469785 1.0869094
0.20528992 -0.21448062 1.0869526
0.21445958 -0.21603335 1.0876155
0.24946053 -0.21222146 1.0810001
0.25221807 -0.21251649 1.0825
0.24831308 -0.20504394 1.0812501
0.25163555 -0.20841643 1.08
-0.52856582 -0.30552235 1.0936666
-0.46157721 -0.30128673 1.0940001
-0.52952969 -0.29511297 1.0962224
-0.46295586 -0.29684639 1.0938002
-0.4598895 -0.29290089 1.09
-0.53030378 -0.28440261 1.09
-0.52979952 -0.2848745 1.0965
-0.52979952 -0.27510431 1.0965
-0.53039658 -0.26258826 1.0932001
-0.52979952 -0.26777661 1.0965002
-0.45192206 -0.26490632 1.0935001
-0.44494638 -0.26412487 1.0932941
-0.43489349 -0.26406455 1.0912499
-0.42556363 -0.26324832 1.0912223
-0.41570792 -0.26251346 1.0905715
-0.40768582 -0.26133585 1.09
-0.53102857 -0.25498003 1.0940001
-0.44364119 -0.2569302 1.0978572
-0.43479595 -0.25506446 1.0961112
-0.4249084 -0.25530687 1.0949049
-0.41478133 -0.2548641 1.0940528
-0.40559223 -0.25530317 1.0921251
-0.39619276 -0.25339639 1.0906668
-0.38468876 -0.2516697 1.0902001
-0.37394932 -0.25301072 1.0907501
-0.36491984 -0.25226155 1.0918182
-0.35502103 -0.25282905 1.0907143
-0.34698385 -0.25162354 1.09
-0.29248565 -0.25234598 1.0905001
-0.28419483 -0.25420484 1.0918332
-0.27487057 -0.25472274 1.0928999
-0.26508126 -0.25474507 1.0918946
-0.25521874 -0.2539992 1.0907273
-0.24743265 -0.25162354 1.09
-0.17094818 -0.25162354 1.09
-0.16487798 -0.25162354 1.09
-0.15759376 -0.25162354 1.09
-0.53148812 -0.24484189 1.0946667
-0.43374103 -0.24778041 1.0988001
-0.42518711 -0.24519791 1.0982
-0.41514513 -0.24465761 1.096875
-0.40438747 -0.2449034 1.0949445
-0.39460078 -0.244882 1.0935789
-0.38487348 -0.24527024 1.0941819
-0.37520814 -0.24576625 1.0958502
-0.36477786 -0.24580856 1.0965716
-0.35507911 -0.24556668 1.0954999
-0.34496546 -0.24525242 1.0935264
-0.33543903 -0.24416217 1.0919375
-0.3261297 -0.24332459 1.0909001
-0.31556356 -0.24323624 1.0905001
-0.30427021 -0.24322185 1.0915334
-0.29504687 -0.24544086 1.0934545
-0.28567591 -0.24485865 1.0961766
-0.27558714 -0.24450833 1.0971764
-0.26508135 -0.24480626 1.0959412
-0.25544804 -0.24547717 1.0939474
-0.24568287 -0.244563 1.0921578
-0.2367004 -0.24318716 1.090889
-0.22679399 -0.24191122 1.09
-0.18347521 -0.24354003 1.0905001
-0.17496508 -0.24486196 1.0923501
-0.16548261 -0.24522993 1.0940001
-0.15571468 -0.24519566 1.09385
-0.14607301 -0.24437886 1.0926113
-0.13685407 -0.24247569 1.0913334
-0.1284568 -0.24191122 1.09
-0.53139287 -0.23443067 1.09475
-0.42288461 -0.23819637 1.0990001
-0.41557121 -0.23512524 1.0980002
-0.40530181 -0.23484397 1.0966876
-0.39526001 -0.23468195 1.0969412
-0.38653263 -0.23712561 1.0982001
-0.35213727 -0.23890367 1.0985
-0.34405661 -0.23677251 1.0977
-0.33467373 -0.23457937 1.0965999
-0.32470202 -0.23530644 1.0943683
-0.31472832 -0.23547797 1.0934286
-0.3051008 -0.23507439 1.0946112
-0.29550031 -0.2349505 1.0971875
-0.28624594 -0.23758009 1.0986667
-0.27395695 -0.23901241 1.0990001
-0.26353732 -0.23787001 1.0985714
-0.25376999 -0.23588821 1.0976154
-0.24429028 -0.23457864 1.0965999
-0.23452568 -0.23532791 1.0944737
-0.22498271 -0.23526721 1.0929999
-0.21527009 -0.23503184 1.0919001
-0.20466159 -0.23397774 1.0913887
-0.19408496 -0.23468499 1.0914737
-0.18480822 -0.2352691 1.0929999
-0.17557909 -0.23473565 1.0961875
-0.16622785 -0.23622611 1.0983076
-0.15399566 -0.23705439 1.0981817
-0.14393693 -0.23489597 1.0969375
-0.13406156 -0.2348433 1.0943531
-0.1245917 -0.23519035 1.0920951
-0.11437494 -0.23403239 1.0912354
-0.10499296 -0.23384048 1.0904546
-0.097296476 -0.23300827 1.09
0.22989546 -0.23241195 1.0910001
0.23556964 -0.23374102 1.0923573
0.2434534 -0.23269939 1.0923637
-0.53102911 -0.22452156 1.0940001
-0.4141596 -0.22819893 1.0987999
-0.40509686 -0.22649314 1.0985001
-0.39618239 -0.2282996 1.0985
-0.33324862 -0.22855574 1.0987501
-0.32458258 -0.22705349 1.098
-0.31487083 -0.22546123 1.0974001
-0.30545142 -0.22530168 1.0978125
-0.29685152 -0.22724652 1.0986667
-0.24090724 -0.22921991 1.0990001
-0.23396793 -0.22864684 1.0986
-0.22419915 -0.2269499 1.0975
-0.21474998 -0.22506973 1.0966874
-0.20476711 -0.22483926 1.0955626
-0.19500482 -0.22483926 1.0955626
-0.18548511 -0.22513448 1.0970001
-0.17686844 -0.22758582 1.0985
-0.14233816 -0.22855572 1.0987501
-0.13402349 -0.22554418 1.0978
-0.124282 -0.22492968 1.0960001
-0.11435288 -0.22460932 1.0944376
-0.10421655 -0.22515547 1.0924211
-0.094743073 -0.2248631 1.091
-0.085067801 -0.22295371 1.0904616
