# .PCD v0.7 - Point Cloud Data file format
VERSION 0.7
FIELDS x y z
SIZE 4 4 4
TYPE F F F
COUNT 1 1 1
WIDTH 1518
HEIGHT 1
VIEWPOINT 0 0 0 1 0 0 0
POINTS 1518
DATA ascii
-0.32522687 0.17219591 1.0325
-0.31556788 0.17235199 1.0326667
-0.30535045 0.17224455 1.0335555
-0.29537162 0.1726487 1.0344445
-0.28480414 0.17357419 1.0348572
-0.27433604 0.17520972 1.034
-0.26526138 0.17618023 1.0346154
-0.25505534 0.17709668 1.0350001
-0.24471287 0.17629434 1.0350909
-0.23519574 0.17481618 1.0344168
-0.22540657 0.17277589 1.0346
-0.21451449 0.1724823 1.0334445
-0.20480151 0.17246759 1.0341251
-0.19468933 0.17302872 1.0343636
-0.18496946 0.17385557 1.0345715
-0.17500293 0.17422505 1.0350001
-0.16500147 0.17364597 1.0352857
-0.15511054 0.17346157 1.0344545
-0.14506623 0.17265482 1.0352501
-0.13510942 0.17241094 1.0345557
-0.12475945 0.17251886 1.0336667
-0.1148916 0.17236266 1.0335001
-0.10507008 0.1722811 1.0337778
-0.094894797 0.17264798 1.0344446
-0.085242994 0.17341091 1.0348572
-0.075075805 0.17445236 1.033
-0.064863473 0.17474584 1.0332223
-0.055033911 0.17466488 1.0335001
-0.045191988 0.17456526 1.0336667
-0.034931239 0.17468987 1.0328889
-0.025117211 0.17474994 1.0340002
-0.014766793 0.17493552 1.0351001
-0.0043928428 0.17596291 1.0343751
0.0048314021 0.17715934 1.0346251
0.014049395 0.17905854 1.0345
0.059239522 0.17906891 1.039
0.065232053 0.17794915 1.0344287
0.074916817 0.17443341 1.0344167
0.085431471 0.17242533 1.033875
0.094669081 0.17246705 1.0341251
0.1050277 0.17384318 1.0340999
0.11533031 0.17466488 1.0335001
0.12458081 0.17348862 1.0348889
0.13504143 0.17254624 1.0346
0.14545338 0.17259213 1.034875
0.15538378 0.17367852 1.0345
0.16536547 0.17456526 1.0336667
0.17514506 0.17462291 1.0332501
0.18480623 0.17457671 1.0322223
0.1951735 0.1744526 1.0330001
0.20521721 0.17474939 1.034
0.21524218 0.176001 1.0346
0.22574429 0.177948 1.0352
0.23483498 0.17894226 1.0356001
0.24602145 0.17905889 1.0345
0.25449461 0.17811023 1.0345833
0.26471597 0.17709619 1.035
0.27468824 0.17700964 1.0330001
0.28497803 0.17679204 1.0332222
0.29501137 0.17703146 1.033875
0.30496338 0.17721882 1.0342222
0.31520092 0.17696288 1.0342222
0.32534322 0.17527686 1.0344001
0.33508238 0.17312287 1.0353
0.34494069 0.17263409 1.035125
0.35494697 0.17386529 1.0343636
0.3654727 0.17483418 1.0345001
0.37505156 0.17500289 1.0355
0.38489547 0.17492169 1.0357778
0.39519441 0.17508408 1.0352223
0.4058699 0.17541391 1.0356667
0.41488421 0.17653412 1.0332223
0.42545629 0.17614627 1.0340999
0.43512928 0.17504515 1.03575
0.44471559 0.17473248 1.0339
0.4550401 0.17423251 1.0332223
0.46502277 0.17383078 1.0344285
0.47503388 0.17434567 1.0338889
0.48530447 0.17483443 1.0345001
0.49579582 0.17578116 1.0345455
0.50567764 0.17701021 1.0337501
0.51557302 0.1772455 1.035125
0.52577943 0.1777018 1.0355556
0.53479868 0.17891306 1.0336667
0.54485786 0.17855185 1.036
0.5552181 0.17860927 1.0343077
0.56453007 0.17820124 1.034
0.5741604 0.1783305 1.03475
0.5843733 0.17863804 1.0365001
0.59369248 0.17901146 1.0386667
0.6978088 0.17901146 1.0386667
0.70494401 0.17876729 1.03725
0.71516997 0.17872421 1.0370001
0.72556502 0.17872421 1.0370001
0.73365015 0.17872421 1.0370001
0.018647229 0.18051051 1.034
0.025445722 0.18265392 1.0345557
0.033192117 0.18578911 1.0352
0.048336659 0.18639259 1.0368334
0.055125996 0.18284966 1.0342222
0.061198533 0.18033592 1.033
0.23585401 0.18016137 1.0320001
0.24275064 0.18016137 1.0320001
0.54505301 0.18016137 1.0320001
0.58441812 0.18024865 1.0325
0.59476584 0.18139639 1.0325001
0.60528195 0.18179142 1.0347501
0.61516923 0.18198924 1.0358751
0.62470037 0.1820768 1.036375
0.63460898 0.18217809 1.0362222
0.64495713 0.18201914 1.0367777
0.65479094 0.18209863 1.0365
0.66505224 0.1820637 1.0362999
0.67491925 0.18192291 1.0355
0.68470293 0.18176511 1.0346
0.69494706 0.18143144 1.0326999
0.70452714 0.18037957 1.03325
0.714158 0.18019629 1.0322001
0.72436559 0.18016137 1.0320001
0.73126221 0.18016137 1.0320001
0.044109277 0.1902743 1.0370001
-0.65546739 0.16886684 1.0475
-0.6436643 0.16899423 1.0435001
-0.63457745 0.16894722 1.0432222
-0.62601936 0.16800903 1.0451
-0.61519539 0.16721763 1.0445
-0.60530668 0.16705696 1.0434999
-0.59524357 0.16716893 1.0441999
-0.5844906 0.16800641 1.0448183
-0.57558131 0.16883042 1.0444
-0.56514114 0.16872175 1.0466
-0.55525988 0.16890715 1.04775
-0.54644501 0.16906837 1.04875
-0.50427532 0.16902804 1.0485001
-0.49507508 0.16867876 1.0463333
-0.4857496 0.16771948 1.0452223
-0.47559035 0.16721708 1.0445
-0.46529731 0.16728131 1.0449001
-0.45426226 0.16818385 1.0445
-0.44574186 0.16859138 1.0442222
-0.43508366 0.16846383 1.0450001
-0.42478266 0.16882819 1.0433637
-0.41526344 0.1676223 1.0462222
-0.40486136 0.16745223 1.0467777
-0.39490974 0.16753726 1.0465
-0.38496622 0.16762231 1.0462222
-0.3744289 0.16739848 1.0464444
-0.36460444 0.16753726 1.0465
-0.35460728 0.1680247 1.0451999
-0.34557915 0.16799213 1.0447273
-0.33473 0.1673639 1.0462223
-0.32481974 0.16745777 1.0460001
-0.3149159 0.16755162 1.0457779
-0.30520543 0.16829665 1.0440001
-0.29563469 0.1676572 1.0458001
-0.28496325 0.16774791 1.0470001
-0.27574113 0.16835114 1.0472
-0.26479515 0.16897969 1.0482
-0.25448278 0.16910866 1.049
-0.24490377 0.16894746 1.0480001
-0.23536888 0.16763856 1.0471251
-0.22498882 0.16685133 1.0453571
-0.21513341 0.16615652 1.045154
-0.2047236 0.16657245 1.0446429
-0.19553347 0.16700688 1.0452858
-0.18514964 0.16786993 1.0467501
-0.17469966 0.16878624 1.0470001
-0.16537051 0.16878624 1.0470001
-0.15487519 0.16878624 1.0470001
-0.14434624 0.16874593 1.0467499
-0.13492171 0.16862503 1.046
-0.12560147 0.16862503 1.046
-0.11453431 0.16891848 1.0437144
-0.10594121 0.16902111 1.0436667
-0.09540008 0.16878624 1.0469999
-0.087376855 0.16905493 1.0486667
-0.044175554 0.16910866 1.049
-0.034795366 0.16894746 1.0480001
-0.026640743 0.16905493 1.0486667
0.077297866 0.16902806 1.0485001
0.085300609 0.16868952 1.0464
0.09580151 0.16870564 1.0465
0.1041755 0.16905493 1.0486667
0.1263456 0.16902806 1.0485001
0.13542931 0.16870564 1.0465
0.14468595 0.16862503 1.046
0.15419111 0.16882654 1.04725
0.16490173 0.16904417 1.0486
0.33631101 0.16890715 1.04775
0.34515309 0.16866532 1.04625
0.35490111 0.16886684 1.0475001
0.36125001 0.16910866 1.049
0.45822501 0.16910866 1.049
0.46523526 0.16910866 1.049
0.47458223 0.16910866 1.049
0.48159248 0.16910866 1.049
-0.65233648 0.17038307 1.0425
-0.64675939 0.1701379 1.041
-0.57371324 0.1701379 1.041
-0.56487048 0.17026865 1.0418001
-0.55493295 0.17042392 1.0427501
-0.54481906 0.17053016 1.0434
-0.53492343 0.17070994 1.0445001
-0.52463269 0.17135397 1.043125
-0.51479375 0.17162472 1.0422223
-0.50523525 0.17138758 1.0425714
-0.49418628 0.17030135 1.0420001
-0.44153446 0.1701379 1.041
-0.43573719 0.1701379 1.041
-0.29428267 0.1701379 1.041
-0.28534836 0.17034221 1.04225
-0.2753787 0.17134938 1.042111
-0.26490107 0.17210503 1.0431
-0.25495899 0.17264304 1.0432308
-0.24548846 0.17206618 1.0433335
-0.23572516 0.17104672 1.0418334
-0.22819328 0.1701379 1.041
-0.19224992 0.1701379 1.041
-0.18551482 0.17034221 1.04225
-0.17538092 0.17098661 1.042143
-0.16473871 0.17046478 1.0430001
-0.15544519 0.17046478 1.0430001
-0.14485095 0.17030135 1.0420001
-0.13427678 0.1701379 1.041
-0.12500107 0.1701379 1.041
-0.11804429 0.1701379 1.041
-0.10297126 0.1701379 1.041
-0.094990596 0.17038307 1.0425001
-0.084273323 0.17117338 1.0432857
-0.074769996 0.17175256 1.0429999
-0.064864397 0.17170596 1.0434999
-0.055520244 0.17156212 1.0426251
-0.045054983 0.1715087 1.0423
-0.034596156 0.17145967 1.0420001
-0.025319677 0.17152125 1.0423751
-0.014892657 0.17178856 1.044
-0.004305399 0.17278226 1.0445555
0.0048780758 0.17421849 1.044625
0.01445647 0.17691426 1.043375
0.023986125 0.17867304 1.0444286
0.056602426 0.17815344 1.0452858
0.065590739 0.17462677 1.0443001
0.074140802 0.17162266 1.044
0.084908426 0.17023596 1.0416
0.095343791 0.17021963 1.0415001
0.10551339 0.17118253 1.0426668
0.11472372 0.17177121 1.0431112
0.12417372 0.17090537 1.0433334
0.13478224 0.17021963 1.0415001
0.14521094 0.17020328 1.0414
0.15588959 0.17046478 1.043
0.16504328 0.1714801 1.0421251
0.17498837 0.17162472 1.0422223
0.18540561 0.1714581 1.0427778
0.19529173 0.17154139 1.0425
0.20480199 0.17172664 1.043625
0.2149823 0.17230275 1.0447779
0.22433922 0.17389196 1.0450001
0.23491922 0.17528793 1.045154
0.2449453 0.17551674 1.0443847
0.2545456 0.17437345 1.0447779
0.26494944 0.17346276 1.0445454
0.27469572 0.17298265 1.0442142
0.28510594 0.17294835 1.0440001
0.29505482 0.17309956 1.0449167
0.30480388 0.17407241 1.04375
0.31507814 0.17386349 1.0438999
0.32459897 0.17219466 1.0445454
0.33402687 0.17089543 1.0428002
0.34491247 0.17030135 1.0420001
0.3563264 0.17089543 1.0428001
0.36521274 0.17172664 1.043625
0.37509406 0.17199391 1.0452502
0.38536981 0.17226499 1.046111
0.39525872 0.1721582 1.0462501
0.40463063 0.17217888 1.0463749
0.41505817 0.17276645 1.0452499
0.42459413 0.17289214 1.0448333
0.43524784 0.17196977 1.045889
0.44496161 0.17188092 1.0437779
0.45476288 0.17142178 1.0425556
0.46534336 0.1706282 1.044
0.47535568 0.1713409 1.0422858
0.48464471 0.17162395 1.043
0.49476755 0.17191193 1.04475
0.50494295 0.1732198 1.0443637
0.51552767 0.17417681 1.0443749
0.5255239 0.17440598 1.04575
0.53567606 0.17521417 1.0449091
0.54475504 0.17538469 1.0446666
0.55419904 0.17484654 1.0449166
0.5650568 0.17409614 1.0446668
0.57446223 0.17437582 1.0445715
0.58422422 0.17535745 1.0445
0.59531289 0.17686418 1.0442224
0.60526186 0.17771287 1.0446666
0.61508918 0.17852873 1.044889
0.62524366 0.17893684 1.0450001
0.63455498 0.17893684 1.0450001
0.64503026 0.17893684 1.0450001
0.65589869 0.17904399 1.0456251
0.66513389 0.17902218 1.0455002
0.67503232 0.17886813 1.0446
0.68525624 0.17841431 1.0442222
0.69392526 0.17734663 1.0446154
0.70507622 0.17574865 1.0446923
0.71486163 0.17544138 1.045
0.72497129 0.17555989 1.0447143
0.73540014 0.17531374 1.0453076
0.74275136 0.17433719 1.0476667
0.029291686 0.18109122 1.044
0.035679281 0.18377052 1.0438334
0.044049762 0.18462764 1.0433571
0.05138386 0.18109123 1.044
0.047758922 0.19100823 1.041
0.050029747 0.19082476 1.0400001
-0.29229406 0.14241245 1.059
-0.28499937 0.14584018 1.0581877
-0.27529293 0.14569439 1.0571251
-0.26522887 0.14596175 1.0571667
-0.25481617 0.14546853 1.0573889
-0.24480964 0.14577101 1.0576876
-0.23538566 0.14577103 1.0576878
-0.22589472 0.14572787 1.0573751
-0.21515819 0.14563456 1.0567
-0.20453745 0.14561485 1.0565625
-0.1960745 0.14565428 1.0580714
0.74497116 0.14581485 1.0580001
0.75050902 0.14574538 1.0575001
-0.3039467 0.1588506 1.0585001
-0.29410571 0.15726958 1.0584445
-0.28501502 0.15527511 1.0582501
-0.27545542 0.15520288 1.0577502
-0.26511008 0.15502274 1.0577897
-0.25458491 0.1554042 1.0577061
-0.24482432 0.15520285 1.0577502
-0.23530219 0.15513775 1.0573126
-0.22569451 0.15500881 1.0564376
-0.21517721 0.15469718 1.0555788
-0.20461531 0.1550314 1.0551765
-0.19511062 0.15501776 1.0565
-0.18811832 0.15739059 1.0582001
0.74803495 0.15184855 1.059
0.7515735 0.15184855 1.059
-0.66435957 0.16691148 1.0548334
-0.65577531 0.16633128 1.0536251
-0.64459968 0.16582458 1.0534002
-0.63522965 0.16507152 1.0546
-0.62490177 0.16419813 1.0550001
-0.61469847 0.16398397 1.053625
-0.60475183 0.16406868 1.0533333
-0.59499067 0.16413602 1.0554446
-0.58539659 0.16526087 1.0542858
-0.57515073 0.1661893 1.0535555
-0.56533903 0.16655543 1.0542223
-0.55534524 0.16676617 1.0555557
-0.54414773 0.16800281 1.0538
-0.53514171 0.16850038 1.0533334
-0.52458692 0.16863662 1.0525556
-0.51389372 0.16778865 1.054091
-0.50447845 0.16669367 1.0548573
-0.4947997 0.16532309 1.0547001
-0.48507267 0.16419785 1.0550001
-0.47516495 0.16402289 1.053875
-0.46478653 0.16408911 1.0543001
-0.4549498 0.16435349 1.056
-0.44497791 0.16546451 1.0541
-0.43468663 0.1661533 1.0525001
-0.42496207 0.16509169 1.054889
-0.41515756 0.1644313 1.0565001
-0.40511566 0.16451882 1.0562222
-0.39460462 0.16434379 1.0567777
-0.38456267 0.1644313 1.0565001
-0.37514886 0.1644313 1.0565
-0.36500281 0.1644673 1.0558889
-0.35481116 0.16427568 1.0555
-0.34466204 0.16410217 1.0552223
-0.33450571 0.16412002 1.0545001
-0.32507172 0.16410071 1.0543751
-0.31524947 0.1632486 1.055091
-0.30536279 0.16299963 1.0536923
-0.29511425 0.16266288 1.0538461
-0.28500083 0.16284418 1.0538461
-0.27483645 0.16375716 1.053125
-0.26529792 0.16416432 1.0534706
-0.25502911 0.16377085 1.0539445
-0.2449694 0.16393319 1.0533125
-0.23470818 0.16283442 1.0526155
-0.22482707 0.16144654 1.0523751
-0.21524528 0.16129313 1.0513752
-0.20517354 0.16112274 1.0511112
-0.1944036 0.16214772 1.0520911
-0.18464805 0.16308901 1.0543572
-0.17508499 0.16510211 1.0543573
-0.1650199 0.16610684 1.0537001
-0.1547367 0.16639064 1.0539999
-0.14529386 0.16633102 1.053625
-0.13527152 0.16622461 1.0537778
-0.12474743 0.16636258 1.053
-0.11465926 0.1661533 1.0525001
-0.10530525 0.16619276 1.0527501
-0.094908416 0.16646926 1.0545
-0.083935559 0.16729793 1.0553
-0.074845456 0.16859803 1.053125
-0.06546367 0.16859803 1.0531251
-0.054399703 0.1678976 1.0538462
-0.044466048 0.16668622 1.0558751
-0.035027776 0.16654854 1.0550001
-0.025236633 0.16693847 1.0550001
-0.015625454 0.16814898 1.054
-0.0044759843 0.16893837 1.05525
0.0014042694 0.16836171 1.059
0.068853788 0.16871965 1.0563334
0.075306252 0.16747814 1.0551112
0.084746435 0.16639008 1.054
0.09475109 0.16645044 1.0535555
0.1057923 0.16686057 1.0555001
0.11524819 0.16799882 1.0538001
0.12442848 0.16699071 1.0553335
0.13466007 0.16646785 1.0536666
0.14510839 0.16622463 1.0537777
0.15525773 0.16646901 1.0545001
0.16486937 0.16668624 1.0558751
0.174449 0.16818526 1.053
0.18483846 0.16841206 1.0527779
0.19482049 0.16849783 1.0525001
0.2049253 0.16869061 1.0528889
0.21510507 0.16877829 1.05425
0.22387426 0.16879988 1.0568334
0.24910165 0.16836171 1.059
0.25604221 0.16879988 1.0568334
0.26524356 0.16883923 1.0554446
0.27571061 0.16822359 1.0551999
0.28514192 0.1679624 1.0553846
0.29466864 0.16852386 1.0551112
0.30527768 0.16887528 1.0556667
0.31525058 0.16895907 1.0553751
0.32529449 0.16809922 1.0549167
0.33418575 0.16690657 1.0543001
0.34456372 0.16618977 1.0535555
0.3547554 0.16639009 1.054
0.36532402 0.1674487 1.0546364
0.3747552 0.16875839 1.0541251
0.38487557 0.16907832 1.056125
0.39442497 0.16913819 1.0565
0.40501553 0.16913819 1.0565
0.41560605 0.16913821 1.0565
0.424869 0.16907859 1.0561249
0.43507344 0.16893022 1.0552001
0.44514397 0.16873796 1.054
0.45481777 0.1678126 1.0541002
0.46486267 0.1667257 1.056125
0.47469255 0.16655779 1.055889
0.48532885 0.1672661 1.0551001
0.49387613 0.16832757 1.0538889
0.50456095 0.16897868 1.0555
0.5121327 0.16836171 1.059
0.69967502 0.16836171 1.059
0.70523834 0.16828223 1.0585001
0.71396255 0.16769913 1.0578001
0.72376072 0.16820274 1.0580001
0.73492062 0.16832992 1.0588
0.74497187 0.16820274 1.0580001
0.75086385 0.16820274 1.0580001
-0.67146212 0.17055956 1.0580001
-0.0009466394 0.17160884 1.0500001
0.0049200826 0.1710254 1.0536251
0.014316082 0.17348132 1.0543001
0.024517605 0.17720795 1.0555
0.035507388 0.17844655 1.0558751
0.044905443 0.17842583 1.05575
0.054770563 0.17571963 1.0542729
0.063908406 0.17167254 1.054
0.22700772 0.17112596 1.0528001
0.23518026 0.17120816 1.0547501
0.24513109 0.17127107 1.0543333
0.25428471 0.17102191 1.0525715
0.26218802 0.17160884 1.0500001
0.30428955 0.17160884 1.0500001
0.31364545 0.17160884 1.0500001
0.50894982 0.17160884 1.0500001
0.51521647 0.17096439 1.0532501
0.52528584 0.17118771 1.054625
0.53512633 0.17132962 1.0555
0.5447886 0.17141105 1.056
0.55484641 0.17124829 1.0550001
0.56455171 0.1709848 1.053375
0.57373446 0.17092408 1.0530001
0.58381015 0.17112699 1.05425
0.5942347 0.17225738 1.054
0.60455883 0.17226559 1.055154
0.61524332 0.1733146 1.0547335
0.62482882 0.17347577 1.0547059
0.63492894 0.17368974 1.054
0.64486349 0.17347017 1.0542502
0.65504485 0.17343447 1.055294
0.66467887 0.17385104 1.0551333
0.67527801 0.17461695 1.0540665
0.68513668 0.17355838 1.0547858
0.69467551 0.17242143 1.0550001
0.70430738 0.17160435 1.0535835
0.71481371 0.1710058 1.0535002
0.72480285 0.17114797 1.0543751
0.73428422 0.17116812 1.0545
0.74432069 0.17106467 1.0546666
0.03766492 0.1810509 1.0505
0.043506939 0.18102218 1.0503334
-0.31038737 0.14725974 1.0685
-0.30431429 0.14479731 1.0645385
-0.29600319 0.14595386 1.0607334
-0.19106436 0.14450425 1.060889
-0.18648547 0.14526264 1.0655001
0.62647998 0.14466822 1.0669286
0.63423973 0.14440115 1.0635791
0.64472628 0.14383498 1.0621581
0.65495956 0.14416228 1.0616471
0.68488091 0.14438379 1.0612355
0.69542521 0.14572191 1.0610002
0.70494461 0.14721744 1.0609232
0.71533597 0.1462736 1.0608237
0.724702 0.14671515 1.0608573
0.73398435 0.14799023 1.0605456
0.74047697 0.1496307 1.0600001
-0.47469699 0.15997614 1.0660001
-0.46757311 0.15997614 1.0660001
-0.33222002 0.15997614 1.0660001
-0.32471848 0.15902053 1.0664285
-0.31441206 0.15640913 1.0648572
-0.30543926 0.15381974 1.0628668
-0.29551747 0.15304489 1.0602858
-0.18439454 0.15443924 1.0633334
-0.17636454 0.15847129 1.0658751
0.61907434 0.15797114 1.0685
0.62518537 0.15512565 1.0669501
0.63450491 0.15499967 1.06444
0.64490956 0.15493563 1.0639999
0.65467191 0.15471122 1.064
0.66495347 0.15485643 1.064182
0.67535567 0.15530092 1.0642728
0.6852988 0.15495962 1.06415
0.69457263 0.15500435 1.0636499
0.70510846 0.15619998 1.0632631
0.71517318 0.15593816 1.06275
0.72468507 0.15594712 1.0628124
0.7349835 0.15587242 1.0623001
0.74482363 0.15582016 1.0609375
0.75190562 0.15730588 1.0608
-0.68332213 0.16328762 1.0682501
-0.6740846 0.1648414 1.0640001
-0.66413444 0.16311395 1.0632501
-0.65384853 0.16271254 1.0632223
-0.64494443 0.16192152 1.0646363
-0.63446069 0.1610285 1.0651251
-0.62452906 0.16091484 1.064375
-0.61482763 0.16085772 1.064
-0.60472792 0.16100891 1.0649999
-0.59548026 0.16172217 1.0649999
-0.58411574 0.1629774 1.0632223
-0.57473654 0.16328555 1.064375
-0.56482166 0.16350424 1.0658001
-0.5540508 0.16485766 1.0638001
-0.54524302 0.16544908 1.0638889
-0.53480762 0.16566068 1.0635556
-0.52385998 0.16516757 1.0637778
-0.51475441 0.16393521 1.0647501
-0.504556 0.16271122 1.0645001
-0.49546024 0.16148731 1.0655557
-0.48498237 0.16102822 1.065125
-0.47483394 0.16158926 1.0610001
-0.46377921 0.16117305 1.0641251
-0.4546693 0.16121721 1.066375
-0.44431981 0.1628623 1.0627143
-0.43472409 0.16290945 1.0627779
-0.42391452 0.16185538 1.0650002
-0.4143357 0.16123623 1.0665001
-0.40454897 0.16112314 1.06575
-0.39495918 0.16108507 1.0655
-0.3854652 0.16108507 1.0655
-0.37534726 0.16117494 1.0652223
-0.36472762 0.16099519 1.0657778
-0.35448596 0.1610285 1.0651251
-0.34479177 0.16093387 1.0645001
-0.33623162 0.1612031 1.0636667
-0.32585883 0.16155118 1.0607501
-0.31972447 0.16143695 1.0600001
-0.17475173 0.16166541 1.0615001
-0.16543292 0.16189402 1.0644547
-0.15547945 0.16302891 1.0635556
-0.144905 0.16324076 1.0632223
-0.13480999 0.16315176 1.0635
-0.12530516 0.1631134 1.0632501
-0.1151199 0.16290945 1.0627779
-0.10456428 0.16312128 1.0624444
-0.094590761 0.16324776 1.0641251
-0.085228965 0.16347817 1.0656251
-0.075221181 0.16435769 1.0648463
-0.064983912 0.16449332 1.0645386
-0.055268429 0.1640451 1.0647001
-0.044850186 0.16338213 1.0650001
-0.035326596 0.16322902 1.0640001
-0.025854085 0.16328639 1.064375
-0.014646778 0.16418865 1.064923
-0.0049120579 0.16525441 1.0643334
0.0052914466 0.16662273 1.0643637
0.01408292 0.16792387 1.0662224
0.020448774 0.16979256 1.0680001
0.055625267 0.16922136 1.0674
0.064772971 0.16682577 1.0642729
0.074751981 0.16373239 1.0651819
0.08552105 0.16317107 1.0636251
0.094999172 0.16317078 1.0636251
0.10461223 0.16338186 1.0650001
0.1150784 0.16414826 1.065091
0.12543184 0.16342033 1.0661111
0.13537225 0.16328585 1.064375
0.14480564 0.16322789 1.064
0.1549599 0.16337711 1.0641112
0.16526039 0.16353527 1.0660001
0.17523417 0.16492686 1.0635
0.18492441 0.16544241 1.0630001
0.1949704 0.1655049 1.0625557
0.20497729 0.16538472 1.0626251
0.21516165 0.16539806 1.0635555
0.22549812 0.165677 1.0645001
0.2348168 0.16674227 1.0637501
0.24503064 0.16594876 1.064375
0.25514391 0.16449539 1.0645387
0.26503766 0.16331637 1.0650588
0.27476478 0.16289423 1.06475
0.28491262 0.16219401 1.0650002
0.29519495 0.16309559 1.0641251
0.30496848 0.16331974 1.064625
0.31480888 0.16328962 1.0648824
0.3244907 0.16264607 1.0648667
0.33487174 0.16222367 1.0640001
0.34508151 0.16204068 1.064
0.35483164 0.16253005 1.0641
0.36482045 0.16344213 1.0642859
0.37475863 0.16469695 1.0644546
0.38516483 0.16562951 1.0652858
0.39523628 0.16611128 1.0664446
0.40582973 0.1661018 1.0661429
0.41459286 0.16590989 1.0660001
0.42448831 0.16572627 1.0656667
0.43480316 0.16579978 1.0644445
0.44452292 0.16555969 1.06375
0.45423269 0.16488729 1.0636667
0.46445975 0.16353527 1.066
0.47492376 0.16345857 1.0655
0.48560458 0.16345857 1.0655001
0.49562272 0.16410646 1.0651001
0.5040009 0.16533984 1.06425
0.51483464 0.16640136 1.0646001
0.52423006 0.16709621 1.0646366
0.53469491 0.16796932 1.064
0.54481709 0.16787273 1.0642223
0.55520958 0.16801316 1.0634445
0.56500226 0.16703859 1.0642728
0.57481259 0.16694939 1.0640001
0.58555973 0.16675422 1.0650001
0.59573662 0.16695052 1.0650834
0.60536677 0.166732 1.0648462
0.61529213 0.16478924 1.0650001
0.62482321 0.16510133 1.0631001
0.63497412 0.1653254 1.06225
0.64477944 0.16540226 1.0622941
0.6549468 0.16530025 1.0625294
0.66519308 0.16521561 1.0628824
0.67532521 0.16550134 1.0633751
0.68498117 0.16566999 1.0631179
0.69508284 0.16516572 1.0624208
0.70535249 0.16421604 1.0615385
0.71523279 0.16376734 1.0610834
0.72481704 0.16399305 1.0612727
0.73481733 0.16387047 1.0615716
0.74501258 0.16409768 1.0607692
0.75190562 0.16344871 1.0608002
0.015594915 0.17109692 1.0613333
0.025460074 0.17427792 1.0642859
0.035796158 0.17516208 1.0645
0.04562391 0.1742712 1.0650001
0.054163098 0.17233276 1.0627143
0.060436856 0.17088196 1.0600001
0.66963947 0.17088196 1.0600001
0.67554259 0.17088196 1.0600001
0.68144572 0.17088196 1.0600001
0.61948717 0.13889806 1.0775001
-0.32170144 0.14863904 1.0785
-0.3152563 0.14496931 1.0735835
-0.18188377 0.14470544 1.0743001
-0.17867157 0.14856845 1.0780001
0.25621119 0.14638983 1.0781667
0.2648488 0.14510918 1.0767391
0.27503669 0.14506847 1.0759474
0.28535929 0.14584525 1.0756251
0.29534373 0.1452447 1.0761113
0.30484614 0.14479847 1.0767499
0.31421605 0.14503476 1.0766315
0.32442427 0.14614022 1.0758336
0.33386248 0.1448999 1.0774999
0.3403348 0.14990917 1.079
0.61833149 0.14589712 1.0768181
0.62186635 0.14497975 1.0716364
-0.68486881 0.15677202 1.0742857
-0.67472869 0.15793388 1.076375
-0.6655249 0.15802599 1.077
-0.65554857 0.15793416 1.076375
-0.64520693 0.15775076 1.0751251
-0.63525683 0.15765862 1.0745001
-0.6251089 0.15758258 1.0748888
-0.61485881 0.1578808 1.0751112
-0.60586095 0.15845139 1.075
-0.59517658 0.15902083 1.0756
-0.58529162 0.15926476 1.0772501
-0.57521248 0.15946436 1.0786
-0.52479059 0.15947421 1.0786667
-0.5153439 0.15915388 1.0765001
-0.50492942 0.15889516 1.0747501
-0.4950065 0.15878427 1.074
-0.48421302 0.15810628 1.0748333
-0.47566777 0.15786041 1.0747143
-0.46400118 0.15812317 1.0756249
-0.45508233 0.15848096 1.0752
-0.44517943 0.15893212 1.075
-0.43570292 0.15896907 1.07525
-0.42505875 0.1585401 1.0755999
-0.415775 0.15793388 1.076375
-0.40521771 0.15789771 1.0752224
-0.39507514 0.15780537 1.0755
-0.38492453 0.15771303 1.0757778
-0.37470824 0.15780537 1.0755
-0.36512512 0.15780537 1.0755001
-0.35550094 0.15778689 1.0753751
-0.34501749 0.15775086 1.0742223
-0.33478835 0.15702245 1.07425
-0.32527983 0.15487796 1.074091
-0.31767371 0.15207283 1.0716667
-0.1800651 0.15132461 1.072
-0.17477682 0.15501124 1.0733846
-0.16505887 0.15778743 1.0753751
-0.15549621 0.15900604 1.0755
-0.1448361 0.1591391 1.0764
-0.13409182 0.15919085 1.07675
-0.12441002 0.15907997 1.0760001
-0.11474326 0.15896907 1.0752501
-0.1051607 0.15896907 1.07525
-0.09564732 0.15907997 1.0760001
-0.084940165 0.1592278 1.077
-0.07416217 0.15926477 1.07725
-0.064547643 0.1592278 1.077
-0.054209691 0.15868796 1.0766002
-0.045355529 0.15802629 1.077
-0.03572958 0.15789777 1.076125
-0.02495179 0.15796754 1.0766001
-0.014172716 0.15809995 1.0775001
-0.0050865007 0.15828218 1.0775715
0.0050288197 0.15926477 1.07725
0.013445251 0.15947421 1.0786667
0.059116583 0.15952349 1.079
0.065033875 0.15930173 1.0775001
0.074626841 0.15808144 1.0773751
0.083382867 0.15856966 1.0758001
0.094924137 0.15910953 1.0762001
0.10588973 0.15937565 1.0780001
0.11560059 0.15952349 1.079
0.12521489 0.15952349 1.079
0.13470423 0.15937565 1.0780001
0.14430963 0.15937565 1.0780001
0.15395153 0.15941262 1.0782501
0.1624703 0.15952349 1.079
0.22492066 0.15949392 1.0788
0.23619291 0.1588358 1.0776001
0.24544294 0.1565651 1.0765834
0.2546199 0.15553778 1.0745556
0.26498526 0.15484579 1.0734445
0.27495694 0.15496612 1.0724376
0.28477907 0.15513051 1.0721176
0.2949746 0.15503246 1.0724118
0.30497816 0.15504706 1.0730001
0.31515193 0.15482189 1.0732777
0.32522041 0.15501024 1.0727501
0.33489704 0.15506375 1.0731251
0.34468597 0.15611893 1.0746924
0.35484618 0.15782411 1.0756251
0.36438766 0.15900604 1.0755001
0.37466621 0.15930173 1.0775001
0.38239735 0.15952349 1.079
0.46514687 0.15946436 1.0786
0.4753637 0.15926476 1.0772501
0.4848507 0.1592278 1.077
0.4944472 0.1592278 1.077
0.50451338 0.15937565 1.0780001
0.51098859 0.15952349 1.079
0.60687202 0.1589504 1.0778333
0.61557931 0.15507732 1.0743811
0.62113571 0.15223408 1.0700001
-0.68400389 0.16061394 1.0702502
-0.67431086 0.16057642 1.0700001
-0.6647768 0.16057642 1.0700001
-0.65643448 0.16057642 1.0700001
-0.59340876 0.16061394 1.07025
-0.58455408 0.16080153 1.0715001
-0.57461584 0.16102664 1.073
-0.56464875 0.16125174 1.0745
-0.55470848 0.16233936 1.0738
-0.54449189 0.16250201 1.074875
-0.5345422 0.16238917 1.0741251
-0.52537173 0.16214372 1.0725001
-0.51569873 0.16091409 1.07225
-0.50643075 0.16062646 1.0703334
-0.44549233 0.16057642 1.0700001
-0.43595827 0.16057642 1.0700001
-0.42761591 0.16057642 1.0700001
-0.16066094 0.16057642 1.0700001
-0.15477329 0.16065146 1.0705001
-0.1453037 0.1607265 1.0710001
-0.13576068 0.1607265 1.0710001
-0.12500232 0.16069648 1.0708001
-0.11418217 0.16057642 1.0700001
-0.10467168 0.16061394 1.0702502
-0.095224246 0.16076401 1.0712501
-0.085778698 0.1609516 1.0725
-0.075063854 0.16102664 1.0730001
-0.064307921 0.16102664 1.0730001
-0.054709651 0.16091408 1.07225
-0.045113385 0.16076401 1.0712501
-0.035534937 0.16061394 1.07025
-0.024821332 0.16072649 1.0710001
-0.014102826 0.16091408 1.07225
-0.0040364787 0.16185519 1.0717144
0.0050076502 0.16216323 1.072625
0.014910948 0.16336145 1.074091
0.023848513 0.16552584 1.0756428
0.034576856 0.1672817 1.0769091
0.046118353 0.16656999 1.0765455
0.055040251 0.16460185 1.0745333
0.064343534 0.16256711 1.0726666
0.074253276 0.16087657 1.072
0.084921576 0.1607265 1.0710001
0.095680632 0.16076402 1.0712501
0.1053732 0.16098912 1.07275
0.1150649 0.1611767 1.074
0.12457551 0.16110167 1.0735
0.13522278 0.1609666 1.0726
0.14589439 0.16087656 1.072
0.15555592 0.16098912 1.0727501
0.16526844 0.16113918 1.07375
0.17527141 0.16209134 1.0732858
0.18503232 0.16243544 1.0735557
0.19514005 0.16231331 1.0736251
0.20516165 0.16211957 1.0732222
0.21524622 0.16214335 1.0725
0.22485554 0.16218144 1.07275
0.23496035 0.16223508 1.0722222
0.24455841 0.16124882 1.0718334
0.25532323 0.16061394 1.0702502
0.35775608 0.16057642 1.0700001
0.3654193 0.16080153 1.0715001
0.37613654 0.16147332 1.0728
0.38453954 0.16239023 1.0730001
0.39433262 0.16259748 1.0755
0.40401873 0.16303647 1.0757776
0.4149251 0.16268763 1.0761001
0.42527717 0.16252132 1.075
0.43460387 0.16242696 1.074375
0.44501114 0.16229455 1.0735002
0.45475677 0.16200526 1.0727142
0.46529546 0.16108666 1.0734
0.47554588 0.16091408 1.07225
0.48498774 0.16087656 1.072
0.49477148 0.1609516 1.0725
0.50582713 0.1619627 1.0724286
0.5152514 0.16224299 1.0742857
0.52521414 0.16288567 1.0747778
0.53493488 0.16356364 1.0740001
0.54526663 0.16370013 1.0736924
0.55526733 0.16356321 1.074
0.56434464 0.16296978 1.0753334
0.57472217 0.16270494 1.0753334
0.5852837 0.16248915 1.0756667
0.59516072 0.16248408 1.0747502
0.60483301 0.1621895 1.0727999
0.61217171 0.16072649 1.0710001
0.025868818 0.17082563 1.0707501
0.035368964 0.17141718 1.0715556
0.044874042 0.1708734 1.0718
-0.32428414 0.135746 1.0865715
-0.17991465 0.13751239 1.0855
0.034397054 0.13514109 1.0877999
0.045030661 0.13529579 1.0871
0.055736281 0.13517369 1.0880667
0.24876656 0.13789245 1.0885
0.33824447 0.1368162 1.08
-0.33089751 0.14887267 1.0890001
-0.32461539 0.14484695 1.0851113
-0.17721775 0.14522348 1.0853001
-0.034943715 0.14887267 1.0890001
-0.024017464 0.14880432 1.0885
-0.013796638 0.14775491 1.0884287
-0.0046184552 0.14759141 1.0885001
0.004354096 0.14833283 1.0886002
0.01478623 0.14887267 1.0890001
0.024489634 0.14887267 1.0890001
0.035675503 0.14617729 1.0890001
0.045100868 0.14520657 1.0888002
0.055491176 0.1455414 1.0887144
0.064989939 0.14836016 1.0888002
0.24672595 0.14564785 1.0856429
0.25298885 0.14299062 1.0812222
0.33824447 0.14162782 1.08
0.34433052 0.14456354 1.084
0.35136044 0.14797293 1.0883335
0.61579925 0.14486247 1.0844002
-0.68482101 0.15431462 1.0858573
-0.67576832 0.1544724 1.0857501
-0.66617167 0.15449031 1.0858752
-0.65581644 0.15433039 1.0847501
-0.64570338 0.15422368 1.0840001
-0.6350705 0.15428016 1.0843999
-0.62490439 0.1544539 1.0856251
-0.61537868 0.15519626 1.0851668
-0.6043027 0.15654711 1.0833751
-0.59519827 0.15669161 1.084375
-0.58504194 0.15688327 1.0857002
-0.57545525 0.1575667 1.0854001
-0.56470299 0.15902266 1.0838001
-0.55537206 0.15873776 1.0868
-0.54404259 0.15867952 1.0864
-0.53444052 0.15869418 1.0836251
-0.52551425 0.15680084 1.085125
-0.51477468 0.15647544 1.082875
-0.50494981 0.1564211 1.0825
-0.49482715 0.15639101 1.0832222
-0.48593745 0.15649922 1.0858334
-0.47404233 0.15648296 1.0846
-0.46547553 0.15585814 1.0841666
-0.45383239 0.15632094 1.0830001
-0.44502437 0.1565474 1.0833751
-0.43532225 0.15652949 1.08325
-0.42515904 0.15596053 1.0835
-0.41465512 0.1545077 1.0860001
-0.40479091 0.15443654 1.0855001
-0.39489174 0.15434776 1.084875
-0.38544646 0.15443653 1.0855001
-0.37514228 0.15453136 1.0852224
-0.36489579 0.15443654 1.0855001
-0.35522354 0.15443654 1.0855001
-0.34535336 0.15434748 1.084875
-0.33549041 0.15304968 1.0842501
-0.32816967 0.15122129 1.0826668
-0.17297007 0.15151773 1.083143
-0.16473705 0.1544522 1.0846667
-0.15482092 0.15661125 1.082889
-0.14470232 0.15669189 1.0843749
-0.13505611 0.1567101 1.0845
-0.12536447 0.15667368 1.08425
-0.11566323 0.15661937 1.0838752
-0.10532357 0.15647167 1.0837779
-0.094602495 0.15675561 1.0838889
-0.084323764 0.15671009 1.0845
-0.074626863 0.15663815 1.084
-0.064998448 0.15549941 1.0845001
-0.055232935 0.15455249 1.0843847
-0.04568835 0.15314369 1.0849167
-0.03553826 0.15288265 1.0843846
-0.024778033 0.1531872 1.084
-0.014259587 0.15302719 1.0840832
-0.004320533 0.15335338 1.0837692
0.0050587393 0.15418407 1.08375
0.014937662 0.15464112 1.0844706
0.024401415 0.1555765 1.0850501
0.034110889 0.15456063 1.086375
0.04530156 0.15501641 1.0857272
0.055580121 0.15517972 1.0840527
0.065415785 0.15419303 1.0838125
0.075196482 0.15323818 1.0855834
0.085081294 0.15522133 1.0840909
0.094010718 0.15624993 1.0841111
0.10422052 0.15687253 1.0856252
0.11492892 0.157848 1.0840001
0.12579513 0.157848 1.0840001
0.13545398 0.157848 1.0840001
0.14511283 0.157848 1.0840001
0.15480821 0.1578844 1.0842501
0.1659591 0.15857711 1.0835
0.17527458 0.15903409 1.0838751
0.18510211 0.15918054 1.084875
0.1953488 0.15908101 1.0851111
0.20540915 0.1589974 1.0836251
0.21536702 0.15851825 1.0831112
0.22515987 0.156891 1.0857501
0.23515089 0.15528642 1.0844167
0.243894 0.15215427 1.0825455
0.34639305 0.15120539 1.0814
0.35516828 0.1533307 1.0843334
0.36519626 0.15585373 1.0836002
0.3752749 0.15656899 1.0847142
0.38548788 0.1575051 1.0850002
0.39401117 0.15872385 1.0845002
0.4051632 0.15850326 1.0885
0.4149555 0.15853967 1.0887501
0.42506096 0.15889411 1.0856667
0.43475431 0.15900855 1.0837001
0.44553617 0.15897921 1.0835001
0.45482239 0.15885067 1.082625
0.46528494 0.1570292 1.0857779
0.47504592 0.15674622 1.0847499
0.48471573 0.15643978 1.0835557
0.49527913 0.15571229 1.0846925
0.50500727 0.15615936 1.084875
0.51518935 0.15781395 1.0838001
0.52450711 0.15841386 1.0846002
0.53508669 0.15905313 1.084
0.54474556 0.15905312 1.084
0.55440444 0.15905313 1.084
0.5642584 0.15910771 1.084375
0.57410145 0.15828483 1.087
0.58540857 0.15903249 1.0847777
0.59551483 0.15866512 1.0841112
0.60483253 0.15635331 1.0844287
0.61222768 0.15191227 1.0837779
-0.5534355 0.16011487 1.0830001
-0.54619807 0.16011487 1.0830001
0.026705956 0.16215217 1.0805001
0.035162851 0.16230597 1.0815384
0.044199638 0.16171706 1.0816251
0.39828992 0.16011487 1.0830001
0.40590182 0.16026272 1.0840001
0.41546398 0.16022576 1.0837501
0.42241478 0.16011487 1.0830001
0.57440132 0.16011487 1.0830001
0.58043253 0.16011487 1.0830001
-0.33118626 0.13298173 1.098
-0.32766253 0.13303177 1.0944
-0.17781582 0.13665576 1.0938572
-0.041876759 0.13511437 1.0972728
-0.033908892 0.1350195 1.0947
-0.024114411 0.13601233 1.0928751
-0.014353797 0.13580294 1.0911875
-0.0049066311 0.13653459 1.0903077
0.0050901989 0.13693249 1.0905
0.01480886 0.13695343 1.0906667
0.024034832 0.13740548 1.0904001
0.030582316 0.13929705 1.09
0.059719257 0.13929705 1.09
0.066505492 0.13643423 1.0910001
0.075865477 0.13507947 1.0951874
0.24701108 0.13474822 1.0941668
0.61724067 0.13496949 1.0943078
-0.69010437 0.14996631 1.097
-0.68399513 0.14996631 1.097
-0.67503262 0.14987518 1.0963334
-0.66628158 0.14982961 1.0960001
-0.65591681 0.14969291 1.095
-0.64529234 0.14977494 1.0956
-0.63756537 0.14996631 1.097
-0.34279177 0.14982961 1.0960001
-0.33393937 0.14603017 1.095
-0.32937649 0.14441772 1.092
-0.1737261 0.14530522 1.094125
-0.1676542 0.14925231 1.0962501
-0.063898847 0.1493201 1.09675
-0.055281311 0.14710145 1.0954168
-0.045870397 0.14490354 1.0937896
-0.035045289 0.14443344 1.0921334
-0.024073625 0.14429499 1.0910834
-0.014749493 0.14341633 1.0905557
-0.0046248194 0.14293918 1.09
0.0054215463 0.14400381 1.0905455
0.014808859 0.14424063 1.0906667
0.024524963 0.14422961 1.0905833
0.032316655 0.14415321 1.09
0.059719257 0.14293918 1.09
0.066154487 0.14400381 1.0905455
0.075990625 0.1451004 1.0931112
0.084686071 0.14680697 1.0962499
0.091870502 0.14996631 1.097
0.23716208 0.14839257 1.0957143
0.24256206 0.14393941 1.0945555
0.35572329 0.14533752 1.0953001
0.36300695 0.14910544 1.0966667
0.49874178 0.14996631 1.097
0.50240725 0.14996631 1.097
0.60870588 0.14874336 1.0970001
0.61299556 0.14486273 1.0940716
-0.69441903 0.15212767 1.095
-0.68473607 0.15176162 1.0923333
-0.67601252 0.15171531 1.092
-0.66628242 0.15171531 1.092
-0.65595102 0.15157638 1.0910001
-0.64501464 0.15157638 1.0910001
-0.63369781 0.1510637 1.0948571
-0.62542468 0.1517241 1.095
-0.6146813 0.15310359 1.09325
-0.60497159 0.15318212 1.0947778
-0.59464508 0.1535154 1.0952222
-0.5852657 0.15368347 1.0961429
-0.57445669 0.15530568 1.0937501
-0.56508094 0.15587594 1.0946668
-0.55487704 0.15584166 1.0953751
-0.54443425 0.15564644 1.0940001
-0.53533387 0.15399247 1.0947778
-0.52481776 0.15317418 1.09375
-0.51448172 0.15299882 1.0925001
-0.50497705 0.15306857 1.0930001
-0.49483293 0.1533206 1.0948002
-0.4845852 0.15350325 1.0948571
-0.47544095 0.15301488 1.0938572
-0.46580881 0.15299881 1.0925001
-0.45510587 0.15308264 1.0931001
-0.44446468 0.15319099 1.0938751
-0.4344703 0.15310386 1.09325
-0.42486715 0.15285516 1.0927144
-0.41428879 0.15122186 1.0960001
-0.40490887 0.15099573 1.095625
-0.39505604 0.15096128 1.0953751
-0.38475791 0.15088136 1.0957778
-0.37435538 0.15097865 1.0955
-0.36467642 0.15101281 1.0957501
-0.35491398 0.15101281 1.0957501
-0.34581324 0.15139285 1.0932
-0.33848557 0.15143745 1.09
-0.16465473 0.15142021 1.0934
-0.155039 0.15305787 1.0938889
-0.14494643 0.15340105 1.0953751
-0.13468237 0.15357739 1.0956666
-0.12428103 0.15348843 1.0960001
-0.11448967 0.15345314 1.0957501
-0.10470169 0.15341786 1.0955
-0.094972447 0.15347078 1.095875
-0.085151143 0.15336603 1.095125
-0.074893244 0.15277018 1.0937779
-0.066278532 0.15144844 1.0936
-0.058042541 0.15143745 1.09
0.085274659 0.15154165 1.09075
0.095590673 0.1526159 1.094125
0.10435233 0.15382624 1.0955001
0.11465305 0.15548542 1.0928751
0.1244048 0.15550306 1.0930001
0.13477738 0.15559091 1.0926667
0.14509691 0.15550306 1.0930001
0.15492533 0.15559185 1.0936251
0.16476406 0.15568089 1.09425
0.17469394 0.1558411 1.0953751
0.18420903 0.15610476 1.096
0.19604661 0.15608427 1.0958573
0.20510216 0.15577024 1.0948751
0.21453863 0.15553892 1.09325
0.22533607 0.15349996 1.0951113
0.23322289 0.15189722 1.0933334
0.35837287 0.15143745 1.09
0.36631474 0.15187442 1.0931667
0.37422109 0.15286759 1.0937501
0.38440728 0.15334922 1.095
0.3945412 0.15452342 1.0947001
0.4050976 0.15577051 1.094875
0.4152303 0.15591307 1.095875
0.42515853 0.1558605 1.0945556
0.43503296 0.15557475 1.0935001
0.44457364 0.15550418 1.0930001
0.45415598 0.15545039 1.0926251
0.46438184 0.1539057 1.0955001
0.47505406 0.15316695 1.0946668
0.48554248 0.15258899 1.0935456
0.4940142 0.15114342 1.0954286
0.5055958 0.1521664 1.0933334
0.51466292 0.15231092 1.0947273
0.52588344 0.15394592 1.0944445
0.53436673 0.15489812 1.0939
0.54439884 0.15550418 1.0930002
0.55420154 0.15552182 1.0931251
0.56419939 0.15559268 1.0936251
0.57440257 0.15571702 1.0945001
0.58526623 0.15568857 1.0943
0.59544247 0.15474331 1.0943334
0.60428739 0.15260448 1.0936364
-0.17599668 0.13479826 1.1042857
-0.052917007 0.13572574 1.1054167
-0.046760481 0.13371271 1.1006666
0.084993303 0.13479488 1.1028334
0.090323545 0.13912921 1.108
0.24343508 0.13542718 1.1046667
0.3569932 0.13868973 1.1045001
0.6157999 0.13513561 1.1048461
-0.7100054 0.14913638 1.1090001
-0.70395249 0.14766696 1.1072501
-0.6940335 0.14689474 1.1045556
-0.68405437 0.14613104 1.105
-0.67488199 0.14592405 1.1053001
-0.66468459 0.14614618 1.1037858
-0.65453774 0.14623405 1.1040909
-0.64502585 0.14716488 1.1035
-0.63505554 0.14741841 1.1054
-0.62568271 0.14821197 1.1058
-0.61479533 0.14881364 1.1066
-0.60405767 0.14890103 1.10725
-0.59459502 0.1490019 1.108
-0.58648533 0.14913638 1.1090001
-0.5454787 0.14906913 1.1085
-0.53463513 0.14880018 1.1065
-0.52418268 0.14863208 1.10525
-0.51456559 0.14869933 1.10575
-0.50551134 0.14893466 1.1075001
-0.49586803 0.1490019 1.108
-0.48555836 0.14886743 1.107
-0.47504947 0.1486657 1.1055
-0.46519679 0.1486657 1.1055
-0.45586151 0.1488338 1.10675
-0.44610155 0.14886741 1.107
-0.4360418 0.14880018 1.1065
-0.42579734 0.14866571 1.1055
-0.41557065 0.14853123 1.1045001
-0.40518203 0.14754817 1.1063751
-0.39518899 0.14749774 1.1060001
-0.38524669 0.14746468 1.1057501
-0.37547919 0.14749774 1.1060001
-0.36515212 0.14766486 1.1062224
-0.35525173 0.14739846 1.1065716
-0.34481415 0.14685017 1.1042223
-0.33637941 0.1434121 1.1029999
-0.17229497 0.14270255 1.1038333
-0.16555081 0.14700709 1.1046251
-0.15518703 0.14893466 1.1075001
-0.149224 0.14913638 1.1090001
-0.082523115 0.14913638 1.1090001
-0.074963793 0.14834689 1.1068001
-0.064494386 0.14562654 1.1049
-0.056253176 0.14253031 1.1025001
-0.049998801 0.14057501 1.1
0.086931951 0.14321929 1.1015
0.093663879 0.1459046 1.1053333
0.10143144 0.1490019 1.108
0.22720411 0.14893466 1.1075001
0.235531 0.14562789 1.1049
0.24102148 0.1409584 1.103
0.35773298 0.1409584 1.103
0.36445144 0.1452246 1.1043334
0.37384263 0.14788744 1.1058334
0.38483661 0.1488338 1.10675
0.39523315 0.14903551 1.1082501
0.40167579 0.14913638 1.1090001
0.44737825 0.14913638 1.1090001
0.45520118 0.14913638 1.1090001
0.46456552 0.14910276 1.1087501
0.47475511 0.14881364 1.1066
0.48504624 0.14740634 1.1063334
0.49522766 0.14736874 1.104
0.50561094 0.14723213 1.104
0.51554668 0.14728478 1.1057142
0.52436316 0.14826576 1.1062
0.53443497 0.14895707 1.1076667
0.54125357 0.14913638 1.1090001
0.59780264 0.14906913 1.1085
0.60581785 0.14701842 1.1049092
0.61205852 0.14213984 1.104
-0.72381127 0.15544693 1.1082001
-0.71583623 0.15340206 1.1077001
-0.70653439 0.15235907 1.1055
-0.69997847 0.15051314 1.1010001
-0.62338167 0.15037644 1.1
-0.61564273 0.15058149 1.1015
-0.60509485 0.15070453 1.1024001
-0.59450275 0.15082073 1.1032501
-0.58461279 0.15135863 1.1036
-0.57507223 0.15210877 1.1037
-0.56461126 0.15227111 1.104875
-0.55503219 0.15232633 1.1040001
-0.54561299 0.15179797 1.1027143
-0.53491622 0.15064985 1.102
-0.5243817 0.15044479 1.1005001
-0.51445699 0.15041062 1.10025
-0.50522637 0.15058149 1.1015
-0.49608737 0.15078655 1.103
-0.48603991 0.1507182 1.1025
-0.47546005 0.15047896 1.1007501
-0.46543875 0.15041062 1.10025
-0.45488411 0.15056781 1.1014
-0.44408661 0.15064985 1.102
-0.4338733 0.15051314 1.1010001
-0.42367783 0.15037644 1.1
-0.16026473 0.15037644 1.1
-0.15441744 0.15064985 1.102
-0.14486064 0.15092325 1.1040001
-0.13517728 0.15109414 1.10525
-0.12541498 0.15119667 1.1060001
-0.11548257 0.15109414 1.10525
-0.10560964 0.15105996 1.105
-0.095763676 0.15105996 1.105
-0.085841626 0.15092325 1.1040001
-0.07704746 0.15055871 1.1013334
0.09838216 0.15058149 1.1015
0.10677045 0.15169485 1.1036667
0.11589926 0.15225291 1.10475
0.12574162 0.1522532 1.10475
0.13558647 0.15225318 1.10475
0.14546256 0.15228736 1.1049999
0.15544909 0.1524252 1.1060001
0.16473237 0.15256198 1.1057144
0.17488253 0.15341726 1.1042501
0.18544838 0.15390038 1.1042
0.19361079 0.15412982 1.1035
0.20548414 0.15279062 1.1056668
0.21489093 0.15230173 1.1041112
0.22516961 0.15086858 1.1035999
0.37659168 0.15046757 1.1006668
0.38572729 0.15068403 1.10225
0.39572483 0.15136497 1.1027501
0.40455332 0.15206438 1.103375
0.41508791 0.15232265 1.1052501
0.42479023 0.15227084 1.104875
0.43461975 0.15193708 1.1034445
0.44532469 0.15204154 1.1022222
0.45580497 0.15194339 1.1025
0.46492919 0.15088908 1.1037501
0.47515106 0.15062252 1.1018
0.48295325 0.15037644 1.1
0.51848334 0.15037644 1.1
0.52520728 0.15054733 1.1012501
0.53574425 0.15136497 1.1027501
0.54421818 0.15194337 1.1025
0.55416781 0.15197755 1.1027501
0.56437707 0.15208119 1.1035
0.57472992 0.15221901 1.1044999
0.58450472 0.15220165 1.1043751
0.59367359 0.15172309 1.103125
0.602341 0.15051314 1.101
-0.17650457 0.12464947 1.114143
-0.060688164 0.12526037 1.1163334
-0.056725599 0.12721689 1.11175
0.093042962 0.12713163 1.1110001
0.24384408 0.1250464 1.1145
-0.3409754 0.13988261 1.1140001
-0.1732167 0.13558367 1.114375
-0.061190318 0.1366978 1.1164
-0.057512261 0.13326061 1.1126001
0.092262283 0.13476591 1.1127501
0.2390184 0.13830899 1.1146668
0.24150144 0.13375469 1.1146668
0.35914111 0.13752441 1.115
0.36273068 0.13770553 1.1165
0.61395448 0.13540997 1.1146666
-0.73449564 0.14578779 1.1165001
-0.72493911 0.14619438 1.1148751
-0.71475172 0.145716 1.1139287
-0.70458633 0.14296901 1.1149001
-0.69492751 0.14217937 1.1143637
-0.6842702 0.14129519 1.115375
-0.67410421 0.14124784 1.115
-0.66431719 0.14127922 1.11525
-0.65468967 0.14175847 1.1157777
-0.64557797 0.14304748 1.1140909
-0.63472593 0.14355077 1.1146667
-0.62469572 0.14465009 1.1142727
-0.61529678 0.14498022 1.115077
-0.60526365 0.14560097 1.1146365
-0.59442258 0.14616606 1.114625
-0.58486253 0.14667119 1.1153334
-0.5755074 0.14759332 1.1146156
-0.56518978 0.14744271 1.1149167
-0.55519795 0.14713265 1.1142727
-0.54470497 0.14614981 1.1145
-0.534114 0.14596906 1.1131251
-0.52413458 0.14595227 1.1130002
-0.51485229 0.14613245 1.1143751
-0.50560302 0.14632915 1.115875
-0.4956063 0.14631318 1.1157501
-0.4849031 0.14608367 1.1140001
-0.47444284 0.14591976 1.1127501
-0.4648917 0.14603408 1.113625
-0.45542905 0.14618176 1.1147501
-0.44554698 0.14619802 1.1148751
-0.43541798 0.14613272 1.1143751
-0.42524984 0.14605062 1.1137501
-0.41499931 0.14593573 1.1128751
-0.40452766 0.14494322 1.11475
-0.39432853 0.14484571 1.1140001
-0.38440236 0.14484571 1.1140001
-0.37447622 0.14484571 1.1140001
-0.36471254 0.14491072 1.1145
-0.3541314 0.14445119 1.1148001
-0.3464978 0.14338009 1.1142001
-0.33973017 0.14111891 1.1140001
-0.17005385 0.14013375 1.1160001
-0.1651265 0.14379637 1.1144445
-0.1552919 0.14669093 1.1145713
-0.14424007 0.14840613 1.114143
-0.13626814 0.14900029 1.1141667
-0.12496908 0.14967428 1.113
-0.11494847 0.14953981 1.1120001
-0.10504013 0.14953981 1.1120001
-0.09361241 0.14887497 1.115
-0.085000336 0.14821793 1.1145002
-0.074284874 0.14560902 1.1151251
-0.065564722 0.14203279 1.1146668
0.096148573 0.14271088 1.1135
0.10447188 0.14734015 1.114125
0.11400127 0.1489329 1.1154286
0.12505423 0.14899023 1.1158572
0.13448063 0.14883138 1.1160001
0.14389095 0.14900944 1.1160002
0.15416223 0.149876 1.1145
0.16416535 0.14994325 1.115
0.20763128 0.14994325 1.115
0.21540858 0.14921215 1.1148571
0.22481419 0.14763436 1.1140001
0.23400722 0.14324443 1.1144446
0.36698127 0.14149289 1.1136668
0.37459272 0.14386661 1.1150001
0.38487634 0.14608368 1.1140001
0.39528909 0.14626385 1.115375
0.40549216 0.14762741 1.1142222
0.41539788 0.14846441 1.1145716
0.42522448 0.14868847 1.1138891
0.43530315 0.14841531 1.112875
0.44391388 0.14698339 1.1152
0.45455217 0.14655389 1.1157
0.4654347 0.14636779 1.1151111
0.47571981 0.14514877 1.1146364
0.48506477 0.1438123 1.1145557
0.49471906 0.14227507 1.1148461
0.5045079 0.14257205 1.1139091
0.51509774 0.14358644 1.113875
0.52548885 0.14464343 1.1148751
0.53524798 0.14614953 1.1145
0.54520583 0.14739706 1.1145715
0.55448526 0.14846519 1.11325
0.56484753 0.14858148 1.114125
0.5750975 0.14866497 1.11475
0.58502924 0.14866497 1.11475
0.59491915 0.1475974 1.1142
0.60490274 0.14401443 1.1140001
0.61014497 0.14099447 1.113
-0.73075569 0.15304816 1.1105001
-0.72626346 0.15239581 1.11025
0.16961074 0.15174349 1.11
0.17506459 0.15094477 1.1132501
0.18517129 0.15109721 1.1143751
0.19514233 0.15113083 1.114625
0.2029397 0.15077093 1.1138
-0.17458294 0.12484404 1.1238333
0.24199732 0.1249394 1.1246667
0.36421952 0.12850478 1.123
0.61731774 0.12527671 1.1246364
-0.7427479 0.136516 1.1272
-0.73469734 0.13784562 1.1266668
-0.72403765 0.13774702 1.1270001
-0.71472257 0.13764535 1.1261667
-0.70528942 0.13751799 1.1251251
-0.69472367 0.13741089 1.1242501
-0.6839022 0.13649654 1.1251818
-0.67458594 0.13668731 1.1245
-0.66466945 0.13741091 1.1242501
-0.654661 0.13711107 1.1252222
-0.64512569 0.13634861 1.1258334
-0.63504654 0.13633871 1.1257501
-0.62505758 0.13661814 1.1264615
-0.61455953 0.13768673 1.1265001
-0.60505867 0.13780896 1.1275001
-0.59514409 0.13909701 1.12775
-0.5857448 0.13925117 1.1290001
-0.57568496 0.13925117 1.1290001
-0.56562513 0.13925117 1.1290001
-0.55556536 0.13925117 1.1290001
-0.54550552 0.13925117 1.1290001
-0.53921813 0.13925117 1.1290001
-0.35059655 0.13925117 1.1290001
-0.34541246 0.13918951 1.1285
-0.17227173 0.13312429 1.1240001
-0.16818248 0.13800322 1.1256667
-0.064893052 0.13577613 1.1245
0.097514562 0.13576908 1.1245002
0.10200484 0.13912784 1.128
0.23694117 0.13606678 1.1257778
0.24121132 0.13077305 1.1210001
0.36513013 0.13423459 1.123875
0.37405342 0.13799942 1.1270001
0.46802115 0.13925117 1.1290001
0.47564521 0.13855085 1.1274
0.48512527 0.13779156 1.1262223
0.49518025 0.13750257 1.1250001
0.50537372 0.13754827 1.125375
0.51454639 0.13828325 1.12625
0.52414441 0.13912784 1.128
0.60770333 0.13842794 1.1264
0.61289656 0.13406549 1.1235
-0.74016219 0.14076158 1.1210001
-0.73457414 0.14088716 1.1220001
-0.72457671 0.14088716 1.1220001
-0.71519089 0.14076158 1.1210001
-0.70956302 0.14063601 1.12
-0.64344805 0.14063601 1.12
-0.63482833 0.14066114 1.1201999
-0.62418389 0.14079298 1.12125
-0.61474085 0.14091855 1.1222501
-0.60460728 0.14171879 1.1220001
-0.59541994 0.14230186 1.1222223
-0.58495736 0.14224912 1.1240001
-0.57457751 0.14243588 1.1243751
-0.56479961 0.14249475 1.1234287
-0.55517662 0.14227726 1.1231251
-0.54571259 0.14210054 1.1231428
-0.53495508 0.14222272 1.1227
-0.52436483 0.14240283 1.124125
-0.51509202 0.14260882 1.1257501
-0.50539935 0.14270411 1.1265001
-0.49481374 0.14254604 1.1252501
-0.48459509 0.14245759 1.1231428
-0.47460032 0.14219183 1.1235555
-0.46462741 0.14251354 1.125
-0.45500901 0.1426402 1.126
-0.44497591 0.14264022 1.126
-0.43470222 0.14256145 1.125375
-0.4244858 0.14249782 1.1248751
-0.41475192 0.14252968 1.1237143
-0.40506458 0.14227614 1.123125
-0.39501271 0.14226016 1.123
-0.38492119 0.14222878 1.1227499
-0.37491593 0.14222878 1.12275
