# .PCD v0.7 - Point Cloud Data file format
VERSION 0.7
FIELDS x y z
SIZE 4 4 4
TYPE F F F
COUNT 1 1 1
WIDTH 1450
HEIGHT 1
VIEWPOINT 0 0 0 1 0 0 0
POINTS 1450
DATA ascii
-0.64502215 -0.22696535 1.0075002
-0.63475078 -0.22590873 1.0085
-0.30264893 -0.015262946 1.006091
-0.29546174 -0.014848788 1.0055501
-0.31108442 -0.0014176725 1.0090001
-0.30509073 -0.0074113882 1.0090001
-0.29446697 -0.0054871668 1.008375
-0.28472504 -0.0047786548 1.0071877
-0.27507931 -0.004574724 1.0059412
-0.28444076 0.0015790481 1.0088334
-0.27462652 0.0029160623 1.0083573
-0.26474515 0.0030760488 1.008
-0.25497922 0.0032366007 1.0080714
-0.30502763 0.015878579 1.0083001
-0.30476692 0.022006491 1.0082858
-0.66324747 -0.22219859 1.0113333
-0.65556383 -0.22158737 1.0106
-0.64549851 -0.22190639 1.01
-0.63537407 -0.22190639 1.01
-0.62384021 -0.22426394 1.0110002
-0.61483175 -0.22461365 1.0129169
-0.60486627 -0.22493972 1.0135455
-0.66200817 -0.21482404 1.0137501
-0.6546368 -0.21567936 1.0130001
-0.64487779 -0.21554776 1.0118502
-0.6351766 -0.21545364 1.0118695
-0.62563431 -0.21528609 1.0131429
-0.61544651 -0.21519051 1.0146317
-0.60499108 -0.21522799 1.01565
-0.59466344 -0.21447369 1.0163158
-0.5853554 -0.2143604 1.0169132
-0.57533878 -0.21477413 1.0174092
-0.66243166 -0.20758453 1.017
-0.6551258 -0.2051876 1.0169474
-0.64468616 -0.20522259 1.0150001
-0.63468838 -0.20471524 1.0154783
-0.62505609 -0.20533659 1.0166087
-0.61496985 -0.20560753 1.0175
-0.60487044 -0.20612793 1.0180527
-0.59590727 -0.2076236 1.0183001
-0.5876928 -0.20799436 1.0190001
-0.65326685 -0.19694115 1.0188572
-0.64494145 -0.19645041 1.018
-0.63564855 -0.19687706 1.01825
-0.62603098 -0.19823825 1.0188572
-0.61833668 -0.19891468 1.0190001
-0.30719686 -0.010428876 1.011
-0.31200936 -0.0036762136 1.0120001
-0.30517396 -0.0039694547 1.0102668
-0.29676855 -0.0014190774 1.01
-0.3103672 0.0053516459 1.0140001
-0.30414432 0.0054435306 1.0111904
-0.29472303 0.0053353431 1.0107
-0.28557608 0.0071346769 1.0104667
-0.27542228 0.0082563395 1.0101001
-0.26527038 0.0087053394 1.0100001
-0.25524658 0.0087092342 1.0104001
-0.24514283 0.0087102074 1.0105001
-0.23541188 0.008402965 1.0104545
-0.301429 0.014330016 1.0100001
-0.29480922 0.015470533 1.0109999
-0.28492892 0.015485363 1.0119002
-0.27481297 0.01548723 1.0120001
-0.2649875 0.015670473 1.0123161
-0.25506148 0.015301608 1.0128236
-0.24499816 0.015690621 1.0135791
-0.2348934 0.01531087 1.0134118
-0.22535731 0.015497628 1.0126251
-0.21497795 0.015481289 1.0115499
-0.30172747 0.025284242 1.0110002
-0.29473194 0.024777584 1.0128889
-0.28503317 0.024303693 1.0140556
-0.27521467 0.024770305 1.0147059
-0.26532429 0.024409533 1.015421
-0.25482044 0.024798809 1.0167367
-0.24488606 0.024436817 1.0174118
-0.23542231 0.024629457 1.017125
-0.22495547 0.024599737 1.0159001
-0.21462026 0.024581915 1.0151875
-0.20494129 0.024832552 1.0151668
-0.19499642 0.02434306 1.0157223
-0.1868213 0.024643287 1.01775
-0.30156669 0.032941956 1.0148001
-0.29512557 0.033794172 1.01675
-0.2850638 0.03390817 1.0175884
-0.27526239 0.033337347 1.0178334
-0.2656613 0.032144986 1.0184
-0.25586379 0.0307205 1.0188334
-0.24833988 0.030347144 1.0190001
-0.2335854 0.030914625 1.0190001
-0.22444886 0.031975932 1.0182729
-0.21490571 0.033237003 1.0180714
-0.20498016 0.033715766 1.01785
-0.19481675 0.033722572 1.0180626
-0.18837686 0.032157123 1.0188
-0.57236457 -0.21047063 1.0200001
-0.56383526 -0.21142614 1.0205001
-0.55446142 -0.21507175 1.0220834
-0.54759938 -0.2149369 1.027154
-0.67187786 -0.20279901 1.0233334
-0.66525674 -0.20278247 1.0213333
-0.60417455 -0.20138204 1.0200001
-0.59483641 -0.20294066 1.0202223
-0.58508694 -0.20462158 1.0210557
-0.57471573 -0.20495681 1.0217369
-0.56469119 -0.20441595 1.0233184
-0.55505317 -0.20481014 1.0258077
-0.54895884 -0.20625949 1.0281428
-0.67220545 -0.19719844 1.0238334
-0.66493726 -0.19476673 1.0223156
-0.65572637 -0.19298643 1.0206667
-0.64479274 -0.19113463 1.0205556
-0.63409787 -0.19196519 1.0204546
-0.62459046 -0.19316733 1.0208752
-0.61482137 -0.19455624 1.0210453
-0.60514998 -0.19500719 1.0211904
-0.59518301 -0.19496824 1.02212
-0.58501452 -0.19512047 1.0239168
-0.57485586 -0.19547661 1.0252918
-0.56497824 -0.19499491 1.0266842
-0.55566192 -0.19570895 1.0282501
-0.66459119 -0.18478021 1.0250589
-0.65473598 -0.1849822 1.0235626
-0.64528596 -0.18515576 1.0234118
-0.63514972 -0.18468818 1.0233333
-0.62488246 -0.18515453 1.0231112
-0.61536741 -0.18497235 1.0235
-0.60522568 -0.18500783 1.0237001
-0.59463352 -0.1850055 1.0246841
-0.58501899 -0.18430452 1.0266957
-0.57547355 -0.1851519 1.0279546
-0.56600666 -0.18725874 1.0287501
-0.55793107 -0.18940575 1.029
-0.65474075 -0.17565934 1.0272274
-0.64464229 -0.17523126 1.0265501
-0.63477552 -0.17486517 1.0262275
-0.62479919 -0.17528033 1.0262272
-0.61472583 -0.17514887 1.0266521
-0.60478681 -0.1754427 1.0271819
-0.59527171 -0.17693101 1.0278236
-0.58568293 -0.17726517 1.0288572
-0.63492286 -0.16659707 1.0286155
-0.6253224 -0.16756842 1.028625
-0.61621839 -0.1681211 1.0290002
-0.60721326 -0.16877601 1.029
-0.28318024 -0.067319348 1.0268
-0.17667571 0.0054085362 1.0246669
-0.18059605 0.015623274 1.021
-0.1761781 0.016020682 1.0255716
-0.18166581 0.02471211 1.0206251
-0.1756451 0.024824979 1.0253125
-0.3035121 0.039517101 1.0213333
-0.29478392 0.039465513 1.0200001
-0.28493795 0.039465513 1.0200001
-0.27408484 0.039018825 1.0202
-0.26451424 0.037793089 1.0208334
-0.25489068 0.036034275 1.0211766
-0.24509247 0.035432622 1.0215502
-0.23548086 0.035805214 1.0212634
-0.22535762 0.037678305 1.0208001
-0.21643062 0.038714584 1.0201668
-0.20541279 0.039465513 1.0200001
-0.19518815 0.039465513 1.0200001
-0.18433993 0.035659872 1.0216
-0.17659611 0.034436509 1.0266876
-0.3045212 0.045448124 1.0216668
-0.29499611 0.045472808 1.0216112
-0.2848812 0.044966526 1.0216112
-0.27479738 0.045519836 1.0226668
-0.26494539 0.045060087 1.0237222
-0.25491571 0.04563117 1.0251666
-0.24485996 0.04514093 1.0255557
-0.23501894 0.045381036 1.0252501
-0.22560844 0.045325708 1.024
-0.2149864 0.045249682 1.0223
-0.20453978 0.045206133 1.0213126
-0.19513404 0.045413882 1.0214707
-0.18542516 0.045140289 1.0238947
-0.17878057 0.044737756 1.028
-0.28475821 0.054795582 1.0257223
-0.27486995 0.054340977 1.0267222
-0.26562208 0.053857025 1.0277693
-0.25574717 0.052956115 1.0282501
-0.24492741 0.052395895 1.0285
-0.23442654 0.053732824 1.0285
-0.22461738 0.054354325 1.0270002
-0.21442546 0.054505385 1.0250624
-0.20506549 0.054445572 1.0239375
-0.19485927 0.054462384 1.0242501
-0.18553808 0.054270439 1.0267857
-0.17971893 0.051274713 1.029
-0.22276922 0.061348625 1.0288
-0.21478245 0.063584514 1.0278667
-0.20521289 0.065234736 1.0272728
-0.19545653 0.063402638 1.027389
-0.18806244 0.061187979 1.0286666
-0.53806186 -0.24502252 1.0345385
-0.54099631 -0.23382342 1.0308001
-0.53883761 -0.23550324 1.0360001
-0.54155564 -0.22475486 1.0341251
-0.53968859 -0.22690216 1.0380001
-0.54266268 -0.21508913 1.0342729
-0.54329264 -0.20512991 1.0343201
-0.55235487 -0.19264907 1.0300001
-0.54442924 -0.19509794 1.034125
-0.57223988 -0.18041216 1.0300001
-0.56428915 -0.18276064 1.0303077
-0.55463088 -0.18484926 1.0313913
-0.54528409 -0.18541096 1.035087
-0.59428263 -0.17191374 1.030143
-0.58428055 -0.17300913 1.0306365
-0.57487828 -0.17503409 1.0310526
-0.56471276 -0.17493005 1.0325791
-0.55463409 -0.17506607 1.0341052
-0.54684877 -0.17577349 1.0368824
-0.625193 -0.16325118 1.0303
-0.61412811 -0.1633154 1.0307143
-0.60473096 -0.16410156 1.0311906
-0.59473354 -0.1645783 1.0320419
-0.58483446 -0.16515525 1.0330911
-0.57511514 -0.16492714 1.0348334
-0.56512469 -0.16525938 1.0363479
-0.55566651 -0.1661067 1.0374
-0.54946631 -0.16694449 1.039
-0.5847742 -0.15491453 1.0359499
-0.57482255 -0.15520476 1.0378889
-0.56694657 -0.15835039 1.0388
-0.29143375 -0.070621021 1.0350001
-0.28553295 -0.070586905 1.0345
-0.27539989 -0.070648305 1.0354
-0.26442742 -0.070798419 1.0376
-0.25784299 -0.070893951 1.039
-0.24395616 -0.070893951 1.039
-0.29422757 -0.068073444 1.0313333
-0.26383001 -0.068034939 1.03075
-0.25520235 -0.068183452 1.033
-0.31327394 -0.054271538 1.031
-0.17100593 -0.014086782 1.0317501
-0.16789821 -0.016696457 1.0367
-0.17234044 -0.0049020401 1.0328751
-0.16977046 -0.0049276915 1.0382501
-0.17211199 0.0042937323 1.0315001
-0.16956607 0.0043141278 1.0370001
-0.17192851 0.013786307 1.032125
-0.16891199 0.011204686 1.033
-0.17258555 0.037362743 1.0326251
-0.17403571 0.046015304 1.0322143
-0.25407606 0.057248708 1.0304286
-0.24540369 0.057088856 1.0305001
-0.23691051 0.057452425 1.0301667
-0.18125966 0.057130683 1.0312501
-0.17553176 0.054733749 1.03475
-0.23455168 0.06500484 1.0320476
-0.22537491 0.066376723 1.0309333
-0.21618798 0.069234565 1.0302001
-0.19419377 0.069248095 1.0304
-0.18484731 0.065188147 1.033421
-0.1781496 0.061723322 1.0376667
-0.21513301 0.075804465 1.0327895
-0.20472969 0.07536763 1.0320588
-0.19486836 0.075947851 1.0337223
-0.18731515 0.073837303 1.0368
-0.53383267 -0.26522812 1.0450001
-0.53464162 -0.25471893 1.0448124
-0.53572905 -0.24481162 1.0434616
-0.5367344 -0.23468669 1.0448668
-0.53798652 -0.22505561 1.0439999
-0.53833175 -0.21470676 1.044
-0.53815252 -0.20495762 1.044
-0.53805292 -0.19523525 1.0441538
-0.54088724 -0.18283503 1.0411999
-0.53882706 -0.18541852 1.0453078
-0.54234332 -0.17418565 1.0436469
-0.53970331 -0.17872523 1.0470001
-0.55248815 -0.16136514 1.0403334
-0.54515904 -0.16531049 1.0442609
-0.55483717 -0.15474215 1.042577
-0.29170829 -0.074745603 1.04425
-0.28479713 -0.074763224 1.0445
-0.27566352 -0.073926695 1.0436667
-0.2650862 -0.073613569 1.04475
-0.25520211 -0.072597422 1.0444287
-0.24448003 -0.071047477 1.04125
-0.23461013 -0.071218058 1.04375
-0.22462519 -0.071371578 1.046
-0.21465459 -0.071542159 1.0485001
-0.20774785 -0.071576275 1.049
-0.22334069 -0.068645492 1.0400001
-0.21549009 -0.068727992 1.04125
-0.16919151 -0.062229291 1.049
-0.16506247 -0.044236995 1.0436001
-0.16647759 -0.012590079 1.0408001
-0.16714218 -0.0049503827 1.0435001
-0.17307772 0.025288442 1.04425
-0.17320204 0.031121459 1.0450001
-0.17237331 0.058772936 1.0400001
-0.17614739 0.065208651 1.0440834
-0.53014386 -0.29130363 1.0534999
-0.53091753 -0.28526002 1.0547777
-0.53196186 -0.27521041 1.0547858
-0.5322395 -0.26516762 1.0553335
-0.53257614 -0.25544962 1.0548334
-0.53393942 -0.24486423 1.0536923
-0.53472751 -0.23567973 1.0551817
-0.53584754 -0.225152 1.0535386
-0.53598928 -0.21502662 1.0534617
-0.5358566 -0.20479904 1.0528462
-0.53588146 -0.19504224 1.0532501
-0.53664052 -0.1851363 1.0550715
-0.29414058 -0.082339607 1.0571667
-0.30216756 -0.072676584 1.0536667
-0.2967962 -0.076833732 1.053
-0.2851494 -0.078991055 1.0544001
-0.27447772 -0.077791058 1.054
-0.2659981 -0.077435903 1.0545
-0.25429001 -0.076271847 1.0546668
-0.24530248 -0.075202525 1.0547501
-0.23456478 -0.074265331 1.054
-0.22511899 -0.074247718 1.05375
-0.21493223 -0.074378058 1.0555999
-0.20413852 -0.073520906 1.0545001
-0.19536115 -0.072987899 1.0543333
-0.18439296 -0.07204026 1.0558001
-0.1812201 -0.069371544 1.051
-0.1746299 -0.067786954 1.0536251
-0.1667881 -0.065473743 1.0541251
-0.32230443 -0.054256786 1.0530001
-0.31995875 -0.053083956 1.0530001
-0.16592953 -0.046265632 1.0580001
-0.16592953 -0.039195243 1.0580001
-0.062637664 -0.0045977379 1.0516667
-0.056906715 -0.003297904 1.0515555
-0.16935281 0.00086369604 1.0500001
-0.053587548 0.0041600298 1.0548
-0.046211895 0.0063273231 1.0510001
-0.17316341 0.01856377 1.059
-0.052590732 0.014662939 1.0570714
-0.044334378 0.01493908 1.0527
-0.036048859 0.017245617 1.0505
-0.027844846 0.019575493 1.0500001
-0.17234585 0.025519779 1.0540001
-0.051264685 0.022881689 1.0586667
-0.044240955 0.025336888 1.0560668
-0.034967057 0.025501098 1.053125
-0.025543148 0.025461476 1.0515001
-0.015612564 0.026450878 1.0505334
-0.041818637 0.032304883 1.0583334
-0.034862347 0.034779739 1.0570668
-0.025625544 0.034942668 1.054875
-0.015023041 0.034875285 1.0528501
-0.004461966 0.03482832 1.0514375
0.0046698023 0.035038572 1.0507333
-0.032398436 0.041747931 1.0586667
-0.025109814 0.043487068 1.0579168
-0.015072596 0.044402312 1.0563002
-0.0044745561 0.044323541 1.0544375
0.0049161315 0.044279091 1.0533752
0.014292976 0.044249844 1.0526876
0.024844961 0.044248395 1.0526501
-0.013217302 0.050863344 1.0586001
-0.0041681891 0.052502405 1.0579091
0.0051417984 0.054209016 1.0572354
0.014348355 0.055018324 1.0568
0.024926612 0.054982625 1.0561199
0.03552844 0.055004645 1.05655
0.044961121 0.055028956 1.057
0.054379392 0.055028956 1.057
0.064974949 0.05502896 1.057
0.017917428 0.062205691 1.059
0.024994496 0.062205691 1.059
0.033251077 0.062205691 1.059
-0.5312764 -0.27496246 1.0654445
-0.53118682 -0.26482922 1.0650001
-0.53175759 -0.25460589 1.0646363
-0.53281957 -0.24538383 1.0640001
-0.53381717 -0.2345053 1.0641
-0.53421152 -0.22508281 1.0643078
-0.53424001 -0.21480666 1.064
-0.53423953 -0.20493078 1.0640001
-0.29116541 -0.084410891 1.0635
-0.28537464 -0.082972288 1.0640001
-0.27509901 -0.082196131 1.0655
-0.26503712 -0.082388982 1.0680001
-0.23411186 -0.080009915 1.0680001
-0.22467832 -0.080039874 1.0684
-0.21766195 -0.080084831 1.069
-0.26313642 -0.079435565 1.0603334
-0.25437149 -0.07965032 1.0632001
-0.2439388 -0.079327904 1.0652001
-0.23578179 -0.078306831 1.0632857
-0.22548518 -0.077122033 1.0610001
-0.21515396 -0.077231064 1.0625001
-0.20479131 -0.077340096 1.064
-0.19444472 -0.0774673 1.06575
-0.18621682 -0.075670123 1.0642856
-0.17464218 -0.073756471 1.066
-0.16939974 -0.072668001 1.0650001
-0.17214632 -0.069965594 1.0600001
-0.16860443 -0.069965594 1.0600001
-0.16624318 -0.04871434 1.0600001
-0.16707963 -0.034715459 1.0653334
-0.17153022 0.004431156 1.0635002
-0.06036419 0.0056273802 1.0666667
-0.057625666 0.0079556732 1.0600001
-0.17332694 0.015039425 1.0600001
-0.061158314 0.014803799 1.0621111
-0.057241183 0.015829617 1.0601667
-0.06017084 0.025746249 1.0632501
-0.054844692 0.026361678 1.0623846
-0.048180666 0.029206928 1.0600001
-0.05376102 0.034676451 1.0661538
-0.04534886 0.035804745 1.0616925
-0.038735662 0.038651932 1.0600001
-0.051418692 0.044195302 1.0684
-0.044857815 0.044772983 1.065125
-0.035887752 0.045264821 1.0616924
-0.027526632 0.047517963 1.06025
-0.044051729 0.052690372 1.0680002
-0.035390936 0.054302827 1.0658751
-0.025826365 0.054162733 1.0631251
-0.015775679 0.055101398 1.0614668
-0.0044998382 0.057569444 1.0605
0.0037672881 0.059922021 1.0603334
0.076965608 0.059903186 1.0600001
0.085271306 0.059931438 1.0605001
-0.033699162 0.06099299 1.06875
-0.02492911 0.06326735 1.0676925
-0.014672277 0.064467542 1.0661819
-0.0047050738 0.0651595 1.0645789
0.0049605812 0.065999843 1.0630625
0.014180269 0.066157669 1.0618
0.025058715 0.067098543 1.0617335
0.036038697 0.066421896 1.0617142
0.045152538 0.065902218 1.0615002
0.054610904 0.065902218 1.0615001
0.064432763 0.065711059 1.0617647
0.075061761 0.066179581 1.0629475
0.08555726 0.066063181 1.0640626
0.091434032 0.066029161 1.0635
-0.010488964 0.072318286 1.069
-0.0036413316 0.073764041 1.0683751
0.005322454 0.07528656 1.0676428
0.014480312 0.075715959 1.0664999
0.025147909 0.07564456 1.0655
0.035837773 0.075662583 1.0657501
0.045365214 0.075715542 1.0665001
0.054868136 0.075715542 1.0665001
0.064379014 0.075724706 1.0666251
0.074020527 0.075070485 1.0674667
0.08330293 0.073243752 1.0686001
0.091906883 0.072318286 1.069
0.016300647 0.082438804 1.069
0.025218716 0.082995847 1.0685
0.035929549 0.082995847 1.0684999
0.045466661 0.083024561 1.0688751
0.054486472 0.082864046 1.0690001
0.063331299 0.08184348 1.069
-0.53124315 -0.25467724 1.0744444
-0.53237206 -0.24447303 1.0745834
-0.53297275 -0.23463398 1.0733751
-0.29230022 -0.087473527 1.072
-0.28380173 -0.086698294 1.0742
-0.27483746 -0.08522445 1.07375
-0.26462552 -0.085403033 1.076
-0.25528079 -0.083892338 1.0741429
-0.24485862 -0.082805559 1.0734
-0.23428454 -0.082871132 1.07425
-0.22497377 -0.082967564 1.0755
-0.21455154 -0.081819311 1.0738572
-0.2050871 -0.081885546 1.0752223
-0.19464374 -0.080414459 1.0733999
-0.18575843 -0.08070913 1.0773335
-0.1825061 -0.077945828 1.0723333
-0.17710137 -0.076427273 1.0733334
-0.033406112 -0.051967002 1.0785
-0.024985354 -0.051942907 1.0780001
-0.016596019 -0.05199109 1.079
-0.052450009 -0.04940369 1.075
-0.045743853 -0.049480289 1.0766667
-0.035619058 -0.049300287 1.0727501
-0.16812518 -0.030161969 1.072
-0.060609426 -0.039676849 1.0710001
-0.16843884 -0.027825803 1.074
-0.062660642 0.0044744406 1.0755
-0.057392914 0.038234219 1.0703334
-0.056089804 0.045370005 1.0716364
-0.054743066 0.054658458 1.072875
-0.046283189 0.056761228 1.0707144
-0.036164764 0.065114439 1.0712501
-0.027786251 0.067038804 1.0702502
-0.024865951 0.074966617 1.07276
-0.014540929 0.075916611 1.0714376
-0.0054378007 0.078102283 1.0707501
0.0026106189 0.07953652 1.0700001
0.076536238 0.079573691 1.0705001
0.085832335 0.07727851 1.0717143
0.092293769 0.076211371 1.0735
-0.0045553381 0.085762307 1.0733125
0.005001422 0.085642442 1.0718124
0.013941903 0.086550348 1.0707501
0.024070373 0.087910078 1.0703752
0.034801673 0.087912157 1.0704
0.045535363 0.087920479 1.0705001
0.055468321 0.087518603 1.0704446
0.064913563 0.086396217 1.0709231
0.074274212 0.085677907 1.0722501
0.084053546 0.085907608 1.0751251
0.090676278 0.086777948 1.077
0.01457402 0.095336758 1.0734376
0.024119774 0.095259607 1.0725625
0.034871355 0.095258534 1.0725501
0.045639258 0.095292069 1.0729375
0.05520596 0.095303178 1.0730624
0.06481716 0.095376089 1.0738751
0.074551284 0.095587298 1.0762501
0.083804943 0.094068661 1.0781002
0.092285916 0.093184814 1.079
0.045788135 0.10519523 1.0764375
0.055386033 0.10520786 1.0765625
0.064395867 0.10466353 1.0776155
0.07292065 0.10241498 1.07875
0.25798875 0.11427297 1.0784
0.25861329 0.12226807 1.079
0.26508889 0.12425847 1.0770527
0.25861329 0.13668951 1.079
0.26434481 0.13414551 1.077875
0.27509496 0.13474847 1.0764349
0.28541857 0.13509285 1.0758501
-0.53467888 -0.38549891 1.0841112
-0.53172404 -0.37657791 1.0836251
-0.5296492 -0.37280941 1.087
-0.53025019 -0.36960518 1.08
-0.52801293 -0.36464733 1.0853001
-0.52665603 -0.35549533 1.08375
-0.5261488 -0.34501848 1.0842222
-0.23536243 -0.087309606 1.0847501
-0.2257268 -0.087017134 1.0848751
-0.21462904 -0.08601816 1.0837501
-0.2053031 -0.086157054 1.0855
-0.19540475 -0.084854096 1.08425
-0.18504515 -0.083172537 1.0844001
-0.17870395 -0.081320941 1.0855
-0.17659725 -0.078503102 1.08
-0.051876985 -0.052424755 1.0880001
-0.045746177 -0.052340433 1.0862501
-0.036811575 -0.053869631 1.0845002
-0.02513369 -0.054666895 1.0844001
-0.0134568 -0.053852826 1.0841666
-0.0054089506 -0.053072389 1.0846667
0.0038610257 -0.052312326 1.0856668
-0.044360124 -0.049725391 1.082
0.0074713118 -0.049794331 1.0835001
-0.063701004 0.00089084078 1.0830001
0.24899936 0.083551191 1.0860001
0.085287459 0.09878578 1.0806669
0.091248728 0.097922407 1.08
0.24888082 0.093078107 1.0890001
0.2518951 0.095716596 1.0832001
0.068013884 0.10838124 1.0803334
0.075545803 0.10673467 1.0819167
0.084546566 0.10574634 1.0845333
0.25239494 0.10547472 1.0840771
0.25354201 0.11583843 1.0840666
0.25438547 0.12549101 1.0837778
0.25417846 0.13450126 1.0828891
-0.63158852 -0.43492317 1.0930001
-0.62985492 -0.43615749 1.09
-0.54199803 -0.41495246 1.0945556
-0.53957874 -0.41038129 1.0990001
-0.54003501 -0.40795407 1.0925
-0.53803188 -0.40362567 1.0958573
-0.53565609 -0.39437565 1.0940001
-0.53255028 -0.38475218 1.094
-0.52978617 -0.38100377 1.0990001
-0.53054368 -0.37892365 1.0930001
-0.52821863 -0.37386501 1.0951251
-0.52634525 -0.36477774 1.0944
-0.52513307 -0.3546274 1.0944166
-0.52501273 -0.34479523 1.0941668
-0.52556515 -0.33573842 1.0943
-0.52645046 -0.32521155 1.0943334
-0.52736419 -0.31535572 1.09525
-0.21480891 -0.089007579 1.0908
-0.20419338 -0.089146294 1.0925
-0.19399714 -0.08878307 1.0940001
-0.18517862 -0.087195002 1.0941429
-0.1773558 -0.084107891 1.0966001
-0.17506748 -0.079448052 1.0930001
-0.03280725 -0.060280874 1.0986668
-0.024214923 -0.060216859 1.0975001
-0.015674077 -0.060280878 1.0986667
0.054066315 -0.060271733 1.0985
0.065049365 -0.060244299 1.098
0.073677048 -0.060299166 1.0990001
-0.052306112 -0.055302087 1.097
-0.043407202 -0.056147594 1.0944
-0.033841979 -0.057508882 1.0925
-0.024071511 -0.057429921 1.0910001
-0.014371355 -0.05752204 1.0927501
-0.0038304247 -0.056769703 1.0938333
0.0049298652 -0.05550281 1.0940001
0.014540583 -0.052771822 1.0951819
0.020991266 -0.052828524 1.0963334
0.035952229 -0.054515366 1.095143
0.043579463 -0.056553163 1.0941429
-0.062193986 -0.045610406 1.0990001
0.24384452 0.05571261 1.0936251
0.24387281 0.06546624 1.09375
0.24541537 0.075089931 1.0940001
0.24642184 0.084996812 1.0942501
0.24704559 0.095235318 1.0952222
0.24863195 0.10440167 1.09325
0.24891597 0.11427206 1.0945001
0.24891254 0.12462982 1.0938889
-0.54817891 -0.44299081 1.1040001
-0.63808382 -0.43770859 1.1
-0.54667437 -0.43492448 1.104
-0.54339409 -0.42469546 1.1051111
-0.54085213 -0.41652474 1.1036001
-0.53847462 -0.41280112 1.1068001
-0.53620899 -0.40475291 1.1049091
-0.53344053 -0.39468071 1.1042728
-0.53134954 -0.38704064 1.1022501
-0.5284692 -0.3842212 1.1065
-0.52570909 -0.3754037 1.1046923
-0.52377158 -0.36572161 1.1051428
-0.52290809 -0.35517466 1.1047692
-0.52346283 -0.34551767 1.1053001
-0.52480567 -0.3345837 1.1044546
-0.52616495 -0.32501578 1.10425
-0.52739263 -0.31518236 1.1042501
-0.043368921 -0.061165892 1.1058
-0.034957506 -0.062587932 1.1048
-0.02435834 -0.063032769 1.1040001
-0.013787244 -0.062554114 1.1042
-0.0046875752 -0.06187645 1.1052501
0.005159176 -0.060628366 1.105
0.015034858 -0.060751818 1.10725
0.024916908 -0.060792968 1.108
0.035478037 -0.061199259 1.1064
0.044503745 -0.061813049 1.104125
0.054361627 -0.063061312 1.1045001
0.064175196 -0.063032769 1.1040001
0.07474868 -0.062542692 1.1040001
0.082117662 -0.061272845 1.1055
-0.050180614 -0.056887947 1.1040001
-0.046388108 -0.057982638 1.1015
0.0075885262 -0.05793 1.1005001
0.015696691 -0.057018287 1.1018001
0.025560016 -0.055889256 1.1038001
0.032408275 -0.056565873 1.1026001
0.085784584 -0.05639948 1.1025
0.090187676 -0.053310364 1.1063334
-0.063705459 -0.042130128 1.1040001
0.24216087 0.024322426 1.1063334
0.24318568 0.034210544 1.1072501
0.24149741 0.044645905 1.1045556
0.23972273 0.05740105 1.1026667
0.24113928 0.054481704 1.1016666
0.23957779 0.062276702 1.102
0.24159335 0.062163677 1.1
0.24246137 0.076955982 1.1052222
0.24338552 0.085376889 1.1044445
0.24403012 0.095721073 1.1055
0.24599048 0.10535663 1.10325
0.24638042 0.11536833 1.105
0.24607423 0.12505668 1.1036251
-0.55139756 -0.44736156 1.118
-0.54658973 -0.44406483 1.1166667
-0.5440501 -0.43534487 1.1148667
-0.53859651 -0.43114385 1.1190001
-0.54148257 -0.42667285 1.1138334
-0.53713834 -0.4245497 1.1175456
-0.52945668 -0.42034224 1.1190001
-0.54003412 -0.41943407 1.11
-0.53447676 -0.4157795 1.1154119
-0.52874696 -0.41355544 1.1175001
-0.53245121 -0.40528959 1.1133572
-0.52692127 -0.40324578 1.11825
-0.53119212 -0.39648229 1.1122
-0.52613771 -0.39459309 1.1162001
-0.52383626 -0.38539791 1.1127692
-0.5182814 -0.38295147 1.1131999
-0.52191573 -0.37465364 1.1112858
-0.51717854 -0.37454537 1.1135455
-0.52072179 -0.36412764 1.1110001
-0.51667434 -0.36474866 1.1137694
-0.52083898 -0.35430712 1.11125
-0.51682907 -0.35477635 1.1150668
-0.5216319 -0.34437752 1.1138334
-0.044452172 -0.064875625 1.1145
-0.034537777 -0.067389801 1.115
-0.024560086 -0.067276344 1.1131251
-0.014648132 -0.067313984 1.1137501
-0.0047348049 -0.067464516 1.11625
0.0051959581 -0.064789057 1.113
0.015125675 -0.064846709 1.1140001
0.025420068 -0.065939821 1.1152728
0.034653779 -0.066342875 1.1144546
0.044912849 -0.067343645 1.1142502
0.054780267 -0.067268647 1.1130002
0.064669289 -0.067238152 1.1125
0.074633755 -0.067283481 1.11325
0.084871486 -0.065357327 1.1142
0.092261687 -0.062504567 1.1165
-0.052973647 -0.058482714 1.1110001
0.094902284 -0.054818466 1.1142727
0.097812742 -0.046939105 1.1160001
0.24148008 0.0046270676 1.1107501
0.24175183 0.01453588 1.112
0.24131702 0.024403036 1.11
0.24218664 0.034422707 1.1140001
0.24131702 0.072619319 1.11
0.24153443 0.086296469 1.1110001
0.23992026 0.097784117 1.115
0.24175183 0.093805403 1.1120001
0.24257892 0.10381386 1.1145556
0.24434535 0.11316104 1.1148001
0.36211139 0.1140791 1.1165
0.3611384 0.12121607 1.1135001
-0.55319417 -0.45283332 1.1233333
-0.54788291 -0.4510591 1.1210001
-0.65267754 -0.44435909 1.1230001
-0.54232413 -0.44446835 1.1205714
-0.53866202 -0.4356873 1.12
-0.53242475 -0.4244602 1.12
0.026898134 -0.085082762 1.1289999
0.0341915 -0.085037038 1.1289999
0.041736364 -0.082064822 1.1290001
-0.024310527 -0.073733434 1.1246001
-0.014799134 -0.074272677 1.1251668
-0.0047772699 -0.074332081 1.1260834
0.0052586328 -0.074369662 1.1266667
0.01565291 -0.075071812 1.1264287
0.02530814 -0.075543821 1.1254375
0.035317291 -0.07550256 1.1248127
0.045353014 -0.075524583 1.1251251
0.055036124 -0.074586719 1.124077
0.065395914 -0.075517304 1.1250001
0.075420097 -0.075516887 1.125
0.085512258 -0.075573534 1.125875
0.093574367 -0.07357423 1.1273333
0.0052275164 -0.068936095 1.12
0.015207142 -0.068936095 1.12
0.021444406 -0.068936095 1.12
0.087599069 -0.068966873 1.1205001
0.096221715 -0.066264711 1.124
0.10195963 -0.063119248 1.1275001
0.098874696 -0.057761662 1.1210001
0.10316058 -0.055554017 1.126875
0.10170341 -0.046672642 1.1246667
0.24121132 -0.011563571 1.1210001
0.24104993 -0.0053163408 1.12025
0.24185686 0.004679177 1.1240001
0.24260996 0.012231374 1.1275001
0.24164169 0.035943016 1.123
0.022894464 -0.087171875 1.13
-0.0047987802 -0.079690784 1.131
0.0052788584 -0.079690784 1.131
0.012825737 -0.079620324 1.13
0.056876421 -0.079620324 1.13
0.097212628 -0.077151351 1.1307
0.1054133 -0.066409096 1.1322
0.10748099 -0.055842385 1.13275
0.11172152 -0.056069694 1.1373751
0.1061845 -0.046349265 1.1342857
0.1105627 -0.048517223 1.1385
0.10544414 -0.039623961 1.138
0.24290693 0.014838055 1.1347501
0.24443895 0.024969628 1.136
0.24314788 0.031135686 1.13
0.1082638 -0.042270105 1.141
0.11552069 -0.045126982 1.1445
0.61799902 0.1051969 1.1555001
0.61856019 0.077759802 1.1648
0.61729312 0.085217252 1.1638751
0.617558 0.095631108 1.1643751
0.61815089 0.10551726 1.1651429
0.61927456 0.069166385 1.1775
0.62443084 0.064574987 1.1745626
0.6181106 0.074962437 1.1738001
0.61716861 0.085335448 1.1731428
0.61754638 0.094410896 1.1745714
0.61802453 0.10436489 1.175125
-0.1716176 -0.4524956 1.187
-0.16516171 -0.45512497 1.1881112
-0.15784277 -0.45874333 1.1888001
-0.17364344 -0.44792444 1.1882
-0.1679344 -0.44928569 1.189
-0.17852883 -0.43339404 1.189
-0.10233852 -0.42460769 1.1885
0.41559312 -0.063331105 1.1863334
0.41712815 -0.057492573 1.1822001
0.42489406 -0.055394255 1.1843638
0.43508127 -0.054537393 1.1866364
0.44509855 -0.054523196 1.1863334
0.4552713 -0.055523258 1.1850668
0.46494496 -0.056028984 1.1846002
0.47494635 -0.055497706 1.1845334
0.48445284 -0.055838179 1.1861666
0.49285221 -0.053707778 1.1878334
0.42609638 -0.045166273 1.1837001
0.43541402 -0.046844576 1.1861
0.44541332 -0.046841457 1.1866364
0.45495215 -0.046328366 1.1858182
0.46464217 -0.046516869 1.1845002
0.47492802 -0.04676608 1.1847275
0.48434603 -0.046594106 1.1864446
0.49335724 -0.048253361 1.1882
0.6169309 0.084578261 1.1834288
0.61761242 0.094634563 1.184375
-0.15217061 -0.46026689 1.1900001
-0.16129155 -0.45208699 1.1908001
-0.1544055 -0.45370317 1.1919168
-0.14562747 -0.45499456 1.1928667
-0.13553128 -0.45446253 1.1928668
-0.1725419 -0.44404384 1.1903334
-0.16429248 -0.44467494 1.192625
-0.15431638 -0.44540754 1.1963749
-0.1454545 -0.44681343 1.1980002
-0.13545838 -0.44655815 1.1979287
-0.12501118 -0.44543055 1.1964376
-0.11415285 -0.44466358 1.194375
-0.17336068 -0.43528745 1.1915456
-0.16468671 -0.43531972 1.1942858
-0.15546001 -0.43567637 1.1980771
-0.13195439 -0.43970993 1.199
-0.12516159 -0.43529522 1.197875
-0.11449839 -0.43508771 1.1947693
-0.10434911 -0.4349466 1.1918002
-0.17317316 -0.42645103 1.1908751
-0.16458948 -0.42575362 1.1935713
-0.15564191 -0.42509338 1.1981817
-0.13195439 -0.42502004 1.199
-0.12512323 -0.42582214 1.1975
-0.11545664 -0.42594212 1.1941001
-0.1075294 -0.42649543 1.191
0.5250836 -0.079140328 1.199
0.42387566 -0.064778328 1.1944286
0.43477878 -0.061773352 1.1951429
0.44533241 -0.061399799 1.1944444
0.45557702 -0.063811913 1.1953334
0.46427834 -0.064170748 1.1937501
0.47500315 -0.065576747 1.1950833
0.48493409 -0.065598533 1.1954999
0.4947063 -0.06444402 1.1952144
0.50469053 -0.064716719 1.1967858
0.51426601 -0.063739784 1.1981667
0.42836288 -0.059990413 1.1900001
0.45222041 -0.059990413 1.1900001
0.48933211 -0.059990413 1.1900001
0.49654031 -0.056472022 1.1903334
0.50362045 -0.054801818 1.1924444
0.51480633 -0.05500352 1.1968333
0.52241272 -0.052431464 1.199
0.43403044 -0.041469369 1.1910001
0.44410092 -0.042048283 1.1924
0.45449752 -0.041521598 1.1925
0.46463591 -0.041478075 1.1912501
0.47515151 -0.041469369 1.1910001
0.48596597 -0.042149488 1.1914999
0.49560109 -0.043202359 1.193125
0.50448853 -0.045577884 1.1945
0.51477236 -0.046272166 1.1976429
0.42785847 -0.038979262 1.1960001
0.43452066 -0.038979262 1.1960001
0.44592023 -0.039044444 1.1980001
0.45500645 -0.039022714 1.1973333
0.46392137 -0.038987409 1.1962501
0.47448206 -0.038979262 1.1960001
0.48524112 -0.038987409 1.1962501
0.49529192 -0.03904444 1.198
0.50104558 -0.039077032 1.199
0.59986842 -0.02038083 1.199
0.60387468 -0.02038083 1.199
0.5989781 -0.016819648 1.199
0.60467595 -0.016641591 1.199
0.61055195 -0.017709944 1.199
-0.14352064 -0.44122225 1.1999999
-0.13651963 -0.44096771 1.2
-0.15077624 -0.43473044 1.2
-0.14419296 -0.43503216 1.2008334
-0.13477573 -0.43485123 1.2003332
-0.15077624 -0.42537457 1.2
-0.14422828 -0.42577288 1.2011251
-0.13555039 -0.42724538 1.2004286
0.51869035 -0.11211833 1.2090001
0.51706755 -0.10405782 1.2063637
0.50700957 -0.092557512 1.2075557
0.51436591 -0.09502288 1.2039334
0.49880266 -0.083368517 1.2086668
0.50513643 -0.084947258 1.2055833
0.51439208 -0.085402496 1.2012142
0.42687511 -0.071453944 1.2045001
0.43215138 -0.071661569 1.2080001
0.46530244 -0.071587414 1.20675
0.47556362 -0.072858177 1.2055001
0.4853785 -0.073916189 1.2052001
0.49482551 -0.075515956 1.205
0.50511336 -0.075346336 1.2023335
0.51458186 -0.075530306 1.2003846
0.52394408 -0.074280478 1.2001538
0.53504413 -0.072545797 1.200375
0.54423332 -0.07118699 1.2
0.42545754 -0.068542421 1.2005
0.43468454 -0.067393951 1.2038335
0.44588733 -0.066620812 1.2044001
0.45458058 -0.067994498 1.2042857
0.4656654 -0.068556696 1.2007501
0.51750219 -0.068513878 1.2
0.52468652 -0.064800188 1.2005334
0.53538257 -0.064863943 1.2017332
0.54500949 -0.064593799 1.2017144
0.55401796 -0.063638262 1.2011539
0.52607548 -0.055505704 1.2005
0.53477693 -0.055275716 1.2027779
0.54499018 -0.054017615 1.2046251
0.55541146 -0.054281015 1.2045333
0.56498951 -0.054059174 1.2036
0.57457018 -0.054487951 1.2023572
0.51750219 -0.041782737 1.2
0.52551562 -0.045518681 1.2009231
0.53498691 -0.045916151 1.2032502
0.54531103 -0.044653807 1.2053335
0.55501395 -0.044678129 1.2060002
0.56441659 -0.044678133 1.2060002
0.57530689 -0.045425419 1.2055002
0.58554405 -0.045990806 1.20525
0.5953061 -0.046296749 1.2051541
0.60475683 -0.044680849 1.2060834
0.61404407 -0.044770751 1.2085001
0.43505812 -0.035239622 1.204875
0.44521299 -0.035431053 1.2048571
0.45523253 -0.035243422 1.205
0.46543837 -0.035203058 1.2036252
0.47549078 -0.035018496 1.2038573
0.48478046 -0.035380591 1.203143
0.49503565 -0.03521093 1.2038751
0.50598127 -0.035814907 1.2038182
0.51487273 -0.034698654 1.2036252
0.52516747 -0.035164371 1.2022499
0.53511608 -0.034868706 1.2026155
0.5447033 -0.035469614 1.2034001
0.55531991 -0.034960806 1.2043335
0.56487793 -0.035558157 1.2050002
0.57480478 -0.035255466 1.2052503
0.58560449 -0.03525871 1.2053751
0.59526789 -0.034940705 1.2050771
0.60461491 -0.035524361 1.2052667
0.61464828 -0.034975395 1.2062309
0.62256634 -0.033445563 1.2078001
0.51698357 -0.027061222 1.2077143
0.52500659 -0.024281431 1.2043159
0.53548932 -0.024435468 1.201375
0.54519147 -0.024035299 1.2004287
0.55459064 -0.024810407 1.2009286
0.56507546 -0.024443565 1.2016875
0.575427 -0.024070647 1.2021428
0.58497751 -0.024541536 1.2020667
0.59467846 -0.024707614 1.2014667
0.60519069 -0.025355805 1.201
0.61471528 -0.024449548 1.2019167
0.62455952 -0.024194993 1.2046155
0.63249534 -0.023220498 1.2077501
0.52730805 -0.016285894 1.2067144
0.53521311 -0.015096309 1.2037693
0.54505593 -0.015072181 1.2018182
0.55449861 -0.014821593 1.2011819
0.56490868 -0.015067585 1.2013334
0.57565266 -0.015068444 1.2014167
0.58578885 -0.015306345 1.2010001
0.59435135 -0.014462162 1.2004445
0.60518026 -0.012913111 1.2
0.61532748 -0.015057428 1.2005
0.62540162 -0.01482022 1.2029001
0.63566971 -0.014800735 1.20675
0.53709632 -0.0097700767 1.2080001
0.54535669 -0.0086061023 1.2067144
0.55483937 -0.0084065143 1.2056251
0.56485766 -0.0082151862 1.2057143
0.57486397 -0.0084047718 1.2053751
0.58554083 -0.0073080016 1.2060002
0.59512848 -0.0070604309 1.2056364
0.60510486 -0.0070571057 1.205
0.6150499 -0.007059169 1.2052
0.62500602 -0.0070608468 1.2054168
0.63517845 -0.0053413031 1.2066429
0.64413768 -0.0046884376 1.2079999
0.65065527 -0.0016986779 1.2090001
0.63880843 0.0018919307 1.2086668
0.64527547 0.0052946219 1.207
0.65388381 0.005475895 1.2077779
0.64612883 0.015761184 1.2055833
0.65440637 0.016129894 1.2045715
0.66341543 0.016365739 1.2077143
0.66442668 0.025140524 1.2046667
0.67217088 0.02699063 1.2073334
0.5187909 -0.12196385 1.2176667
0.50940335 -0.11033025 1.2190001
0.51607043 -0.11470351 1.215
0.50617427 -0.10390408 1.2160001
0.51312244 -0.10670865 1.2121111
0.49591425 -0.093820281 1.2161539
0.50343472 -0.096473791 1.2123637
0.476908 -0.081040286 1.2175001
0.48527667 -0.084167629 1.2154546
0.49388412 -0.085631922 1.2118182
0.50025159 -0.087952554 1.21
0.43556225 -0.071780212 1.21
0.44476891 -0.072180644 1.21675
0.45562506 -0.071970046 1.2132
0.46487328 -0.075235553 1.215
0.47388709 -0.07689184 1.2126667
0.48572755 -0.079242043 1.21075
0.44364843 -0.069084823 1.21
0.61936021 -0.054305028 1.2110001
0.62553167 -0.05449098 1.215125
0.63133895 -0.051927581 1.2185001
0.61901927 -0.044839408 1.2103333
0.62516421 -0.044562668 1.2132857
0.63294005 -0.04455737 1.2174001
0.46434218 -0.031381752 1.2112501
0.47464538 -0.031349368 1.21
0.48542693 -0.031349368 1.21
0.4948608 -0.031349368 1.21
0.50294697 -0.031349368 1.21
0.6262235 -0.036767449 1.2108572
0.63473129 -0.035529457 1.2146001
0.64166927 -0.032900289 1.2175
0.49526238 -0.027626496 1.2157145
0.50550115 -0.026614547 1.2155001
0.51381582 -0.023321606 1.2131538
0.63644582 -0.025531182 1.211
0.64426625 -0.02473544 1.2160001
0.65060616 -0.020720797 1.2190001
0.51782066 -0.016411277 1.2160002
0.52340275 -0.014189574 1.2121251
0.64555216 -0.015604371 1.213143
0.65351218 -0.01346513 1.2176667
0.5263958 -0.0086737657 1.2161429
0.53495198 -0.005984081 1.2143334
0.54487062 -0.003504857 1.2140001
0.55524379 -0.0030513932 1.2123752
0.56503534 -0.002857859 1.2118572
0.57508677 -0.0030498852 1.2115
0.58422041 -0.0023770914 1.21225
0.59459001 -0.0017039466 1.2127501
0.60502243 -0.0017028928 1.212
0.61582184 -0.0017028928 1.212
0.62610257 -0.0017014879 1.2110001
0.64768517 -0.0084455311 1.2110001
0.65529436 -0.0060367333 1.2141001
0.66363788 -0.0037479019 1.2180002
0.55541319 0.0010024357 1.2186667
0.56437331 0.0010014761 1.2175
0.57498664 0.0010010648 1.217
0.58583057 0.0010010648 1.217
0.59531903 0.0010010648 1.217
0.60431051 0.0010002423 1.2160001
0.61514556 0.0010002423 1.2160001
0.62625051 0.0015433298 1.2160001
0.63553184 0.0041584116 1.2144167
0.64074463 0.0082005253 1.2123333
0.65874362 0.0036919874 1.2106667
0.6654619 0.0050505092 1.2138999
0.6739496 0.0069705052 1.2180002
0.64225894 0.015866455 1.2135
0.66720265 0.012689049 1.2113334
0.67473739 0.016237371 1.2140001
0.68316174 0.019079013 1.2173333
0.64134979 0.025342397 1.2143334
0.67643845 0.024730543 1.2107999
0.6849401 0.025353611 1.2148751
0.69348454 0.027229587 1.2180001
0.6364184 0.035217814 1.2126666
0.68609047 0.031576823 1.2113334
0.69513065 0.033966649 1.2133
0.70524138 0.036176763 1.2148889
0.71566343 0.037582215 1.2165002
0.72604376 0.038986832 1.2180001
0.73206925 0.039018843 1.2190001
0.62565583 0.047781456 1.215
0.63157886 0.042906687 1.21375
0.7164759 0.041460387 1.211
0.72596407 0.041540276 1.2133335
0.73511815 0.042871222 1.2128334
0.74414253 0.042924061 1.2143333
0.75401837 0.043848693 1.2150002
0.7647422 0.046097681 1.2148334
0.77153289 0.04708777 1.217
0.78250742 0.049635079 1.2130001
0.79527771 0.047049083 1.2160001
0.80580598 0.046952356 1.2135
0.770899 0.052466594 1.2160001
0.52810752 -0.16262555 1.2284001
0.52777863 -0.1547872 1.2270001
0.52629775 -0.14497754 1.2249287
0.51863527 -0.13029324 1.228
0.52293837 -0.13559575 1.224
0.51677608 -0.12505314 1.2249
0.52090526 -0.12813863 1.2205
0.50729156 -0.11267853 1.2248334
0.51235741 -0.11733823 1.2232859
0.49725205 -0.10270365 1.2252001
0.50260103 -0.10693161 1.2236001
0.48682514 -0.092668794 1.2248335
0.49336335 -0.097524978 1.223
0.46764657 -0.080988474 1.227
0.47477931 -0.083536319 1.2242501
0.4826611 -0.088027209 1.2235
0.64244694 -0.085071862 1.2267501
0.45557064 -0.075835161 1.2232001
0.46339321 -0.078000098 1.223
0.63604802 -0.075233974 1.2223334
0.64220929 -0.075076669 1.2271668
0.63458043 -0.06569308 1.2221251
0.64155799 -0.064624757 1.2276667
0.63548756 -0.054992098 1.222
0.64323848 -0.054443065 1.2271429
0.63716817 -0.04704709 1.2210001
0.64534992 -0.045046937 1.2251252
0.65293986 -0.041407336 1.2285001
0.64498264 -0.037093408 1.2215713
0.65306705 -0.034501854 1.2261667
0.64895368 -0.02891447 1.2210001
0.65572298 -0.024913132 1.2247502
0.66088057 -0.023609264 1.228
0.6567449 -0.017143037 1.2220001
0.66426772 -0.01446677 1.2258333
0.66679865 -0.0077120787 1.2228
0.6742366 -0.0044548186 1.2252858
0.68195164 -0.0030956357 1.2290001
0.59513324 0.0064711925 1.225
0.60515583 0.0067464812 1.2254001
0.61467415 0.0062209307 1.2246366
0.62457711 0.0067198812 1.225091
0.63392317 0.0081622815 1.2235001
0.67656791 0.0030448921 1.2217501
0.68450189 0.0049483138 1.2256668
0.69207114 0.0083065024 1.2283335
0.63808328 0.012618897 1.2262501
0.64064664 0.015172447 1.2228
0.68559474 0.013703306 1.2216667
0.69439918 0.015572853 1.2260001
0.64159167 0.024204528 1.2251251
0.6897521 0.020043608 1.2210001
0.6954028 0.022783024 1.2221667
0.70402783 0.024962982 1.2253335
0.71407855 0.027675329 1.2277501
0.64139599 0.032383114 1.2247502
0.7062664 0.030931622 1.2213334
0.71462303 0.032596081 1.2226001
0.72475445 0.033748832 1.2250001
0.7355172 0.036128536 1.2247502
0.74491787 0.037828263 1.2245001
0.75399458 0.038160626 1.2264
0.76441616 0.039285585 1.2273334
0.82774383 0.039306924 1.2280002
0.83581817 0.038676161 1.2254001
0.63153112 0.04181987 1.2215
0.75712878 0.041768514 1.22
0.76423311 0.041859809 1.2226667
0.77505952 0.044174269 1.2240001
0.7836132 0.045612346 1.2260001
0.80806744 0.044522651 1.2210001
0.81524682 0.04241547 1.2256669
0.82472157 0.04181987 1.2215
0.77774298 0.05138376 1.2225001
0.78588313 0.051986232 1.2260002
0.50842398 -0.18201144 1.2386668
0.51533771 -0.1821527 1.2365
0.52543241 -0.18184075 1.2357143
0.53548801 -0.1824445 1.2371428
0.50813037 -0.17608626 1.2384001
0.51485324 -0.17471145 1.2340769
0.51678813 -0.16664673 1.2355834
0.5232926 -0.16487628 1.2309166
0.51968086 -0.15880351 1.2370001
0.52262485 -0.15493821 1.2336668
0.52182215 -0.14499158 1.2341113
0.51832467 -0.13415131 1.2347144
0.52053583 -0.13763502 1.2325001
0.50824749 -0.12012882 1.2360001
0.51303869 -0.12546214 1.2342857
0.50505656 -0.11494853 1.2336
0.6425612 -0.11476243 1.2375001
0.48976555 -0.10101887 1.238
0.49505258 -0.10481843 1.234
0.50030035 -0.1085859 1.23
0.64479649 -0.10470326 1.2344444
0.65389377 -0.10272382 1.2386001
0.66681397 -0.10237819 1.2377501
0.48533091 -0.095518529 1.2337501
0.64625341 -0.094994195 1.2314001
0.65485626 -0.095316008 1.2355556
0.66534406 -0.095513932 1.2355715
0.4751122 -0.087715372 1.2337142
0.64891607 -0.085383922 1.23125
0.65599722 -0.085591406 1.2342499
0.66556704 -0.085893869 1.2346667
0.64804667 -0.073502794 1.2313334
0.65595174 -0.075200014 1.2352
0.66489828 -0.074360214 1.2369287
0.67487121 -0.074899882 1.235353
0.68492448 -0.07452175 1.2331251
0.64785284 -0.064843714 1.2318335
0.65555048 -0.065062679 1.2360001
0.66465485 -0.065751314 1.2386
0.67563701 -0.066207863 1.2381251
0.68473643 -0.065131374 1.2373334
0.69457269 -0.064820535 1.2361819
0.70458513 -0.065013312 1.2350833
0.71457595 -0.064921193 1.2333333
0.64823109 -0.057271119 1.23125
0.65530217 -0.054909907 1.2346668
0.66294968 -0.055527274 1.23825
0.68681049 -0.059010617 1.2390001
0.69614214 -0.056682888 1.2384168
0.70566887 -0.055765714 1.2374668
0.71528703 -0.055412661 1.2357501
0.72512251 -0.055322975 1.2337501
0.65605408 -0.045647588 1.232143
0.66547585 -0.044074472 1.2370001
0.67232054 -0.04038069 1.2390001
0.7063604 -0.046820667 1.2390002
0.71491355 -0.044766437 1.2382001
0.72478408 -0.044435419 1.2366875
0.73480225 -0.044666518 1.2354666
0.74511796 -0.044415142 1.2361429
0.7547937 -0.044458557 1.2373334
0.76370513 -0.046221681 1.2383751
0.65948498 -0.03325158 1.2305
0.66520512 -0.035129432 1.2345715
0.67273921 -0.034157198 1.2385001
0.71924037 -0.037620697 1.2390001
0.72599298 -0.037613105 1.2387501
0.73475724 -0.036030542 1.2385714
0.74439251 -0.037056554 1.2386
0.75236022 -0.037620697 1.2390001
0.66591418 -0.025064288 1.23225
0.67412782 -0.025166539 1.2372501
0.68060046 -0.021060759 1.2390001
0.66797948 -0.018182604 1.2310001
0.67471582 -0.015470696 1.2332858
0.68432575 -0.014491042 1.2376251
0.69108218 -0.01001271 1.238
0.67702663 -0.0085780369 1.23
0.68540996 -0.0065428596 1.2333751
0.69583291 -0.0041516908 1.2372501
0.68991679 0.0010125808 1.2310001
0.69669265 0.0045445627 1.2332858
0.70422095 0.0057389447 1.2368572
0.71096039 0.0092991311 1.2390001
0.64003736 0.017451407 1.23
0.69757617 0.011971524 1.23
0.70518839 0.014403286 1.2331251
0.7147916 0.015720932 1.2376667
0.70774198 0.020207766 1.2310001
0.7156747 0.022981692 1.2328571
0.72490782 0.025455933 1.2345556
0.7342512 0.026277835 1.2371668
0.74348116 0.028595962 1.238
0.85750759 0.028020864 1.2370001
0.86543339 0.025000712 1.2357857
0.87312651 0.024558945 1.2354445
0.73419112 0.031193325 1.2316667
0.74459618 0.032598179 1.2330002
0.75512308 0.033242285 1.2351428
0.76454473 0.035378065 1.2341666
0.77453029 0.037111614 1.23475
0.78463411 0.038696345 1.2376667
0.79206085 0.039643019 1.2385001
0.81683445 0.039573666 1.2363335
0.82461256 0.03793874 1.2344285
0.83470118 0.035379801 1.2342501
0.84511054 0.032661188 1.2354
0.85479671 0.031662647 1.2321666
0.77977443 0.042110879 1.23
0.78516006 0.042179354 1.2320001
0.79295582 0.044543501 1.2341667
0.80861306 0.042401891 1.2385001
0.81281602 0.042333417 1.2365
0.79073417 0.050330702 1.23
0.55671823 -0.20207803 1.2490001
0.56089169 -0.20207803 1.2490001
0.50618267 -0.19123022 1.2472001
0.5149762 -0.19182272 1.245625
0.52514213 -0.19196844 1.2452857
0.5350495 -0.19157161 1.2452857
0.54515523 -0.19411811 1.2461001
0.49664858 -0.18481566 1.2475001
0.50374949 -0.18472043 1.2428182
0.51424181 -0.18688613 1.2405
0.5250845 -0.18681079 1.24
0.53518349 -0.18696146 1.2410001
0.49637991 -0.17619725 1.247
0.50402611 -0.17412665 1.2428001
0.44960102 -0.16034405 1.2490001
0.50768757 -0.16728169 1.2468001
0.51376843 -0.16424319 1.2434444
0.51827723 -0.15578005 1.2446667
0.52094114 -0.15090197 1.24
0.44503006 -0.14861763 1.2440001
0.51891959 -0.14523832 1.2455714
0.52094114 -0.14813976 1.24
0.51614952 -0.13537632 1.244
0.63798171 -0.13177866 1.2420001
0.64055008 -0.13508698 1.2470001
0.50843674 -0.12325063 1.2443334
0.51218444 -0.12822752 1.2433335
0.64492422 -0.1245412 1.2447144
0.49821123 -0.11178771 1.2453334
0.50311983 -0.11672592 1.2437501
0.6466828 -0.11508664 1.2410001
0.6547845 -0.11477011 1.246143
0.66590536 -0.11292482 1.2476667
0.67517096 -0.11493012 1.2447274
0.49316502 -0.10647838 1.2438002
0.65616292 -0.10727576 1.242
0.6647445 -0.10751251 1.2429
0.67064136 -0.109557 1.2410001
0.66733867 -0.062511019 1.24
0.67286319 -0.062511019 1.24
0.66733867 -0.056986585 1.24
0.67451656 -0.055627197 1.2404997
0.68483216 -0.054472219 1.2404166
0.69427025 -0.052152701 1.24
0.67575902 -0.045271669 1.2406667
0.68594909 -0.044598918 1.2411875
0.6953339 -0.044580009 1.2406667
0.70324749 -0.0431755 1.2399999
0.71153414 -0.040413279 1.24
0.76579732 -0.042077128 1.2402
0.77497739 -0.044142101 1.2413335
0.7850647 -0.044355564 1.2433847
0.79504424 -0.044744536 1.2453334
0.80483383 -0.04550888 1.2472501
0.81244403 -0.045684151 1.2482002
0.6775015 -0.035452984 1.2404
0.68571997 -0.035180878 1.2414547
0.69502401 -0.034643125 1.2411001
0.7050069 -0.034907043 1.2406667
0.71502167 -0.034896616 1.2402999
0.72488964 -0.03332524 1.2405714
0.7354573 -0.032146059 1.2407501
0.74559355 -0.033247061 1.2406
0.75532758 -0.034354985 1.2407
0.76511264 -0.034937628 1.2417779
0.77451843 -0.034987893 1.2435557
0.78408813 -0.035044413 1.2455556
0.79396677 -0.035112944 1.2480001
0.80016649 -0.037924334 1.2490001
0.67838752 -0.027983299 1.24
0.68476588 -0.025620949 1.2410909
0.69469851 -0.025261343 1.2420003
0.70517212 -0.025655249 1.2420002
0.71519262 -0.024883419 1.2429286
0.72533005 -0.025682295 1.2433574
0.73499507 -0.024896676 1.2436428
0.7450605 -0.025564602 1.2434002
0.75473619 -0.024972044 1.2436155
0.76485974 -0.02557935 1.2440666
0.77527803 -0.025010791 1.2454616
0.78473467 -0.025354708 1.2465833
0.79366475 -0.02539238 1.2484002
0.68870097 -0.017399723 1.2403333
0.69602817 -0.014567527 1.2414546
0.70509171 -0.014209636 1.24325
0.7149632 -0.014550712 1.2452309
0.72490811 -0.014356721 1.246923
0.73473591 -0.014454459 1.2475716
0.74531358 -0.014575781 1.2474618
0.75509208 -0.014347247 1.2474667
0.7651515 -0.013859792 1.2476429
0.77511984 -0.014530575 1.2472
0.78341657 -0.014948693 1.2472501
0.70492989 -0.0049063535 1.2415714
0.71459651 -0.0045248154 1.2453333
0.72433591 -0.0048826579 1.2483752
0.77698106 -0.0063919891 1.2490001
0.78120059 -0.0063880817 1.2483333
0.70842284 0.0019422881 1.2410001
0.71584558 0.0053285751 1.2432224
0.72467339 0.004636779 1.2474
0.73031735 0.0079792989 1.2485001
0.71821523 0.012088319 1.2420001
0.72497046 0.014524037 1.2435
0.73457581 0.01525802 1.246875
0.74283314 0.017713889 1.2485001
0.72701991 0.020363715 1.2405
0.73584324 0.021507693 1.2428
0.745435 0.023194799 1.2443334
0.75455451 0.025421524 1.2449001
0.76564348 0.027586004 1.2458572
0.77551258 0.027202692 1.2464286
0.78251475 0.02785407 1.2459999
0.83819401 0.027132541 1.2468001
0.84406078 0.027557896 1.2445714
0.85519868 0.024779433 1.2443571
0.86208045 0.021079451 1.2420001
0.76422244 0.031412818 1.2403333
0.7746194 0.03213292 1.2415001
0.78459817 0.033355091 1.2441667
0.79480374 0.036121011 1.2440001
0.80506229 0.037324239 1.2441
0.81458318 0.036522016 1.2451
0.82404387 0.034637358 1.2446251
0.83407032 0.031896982 1.2438571
0.80657262 0.046225999 1.2460001
0.81388408 0.04546982 1.2470001
0.82044923 0.045434251 1.2460001
0.55546361 -0.21409936 1.2574999
0.5637455 -0.21282573 1.2566
0.57053792 -0.21194109 1.258
0.50768697 -0.20081159 1.2585001
0.51548105 -0.20057225 1.2570001
0.52486515 -0.20041269 1.256
0.53537911 -0.20165959 1.2562858
0.54590446 -0.20504159 1.2557778
0.5544048 -0.20622016 1.2526364
0.56560266 -0.20578629 1.2525001
0.57441998 -0.20549802 1.255
0.58443552 -0.20290352 1.2562501
0.59419978 -0.20208053 1.2576667
0.60300469 -0.20081159 1.2585001
0.48965976 -0.19247776 1.2590001
0.49550745 -0.19383541 1.2556667
0.50389469 -0.19564711 1.2533333
0.51621962 -0.19698548 1.2520001
0.52556247 -0.19682817 1.251
0.53520817 -0.19678882 1.2507499
0.5434823 -0.1990899 1.2512001
0.57653618 -0.19895864 1.25125
0.60478532 -0.19522628 1.2563751
0.48683143 -0.18399738 1.2553334
0.49211398 -0.18678594 1.2521667
0.45600525 -0.1714437 1.2590001
0.4784416 -0.17004144 1.2590001
0.48501235 -0.17533138 1.2552859
0.4928605 -0.17411478 1.2508572
0.4566209 -0.16415159 1.2568333
0.47423476 -0.16443235 1.2590001
0.48547226 -0.16760962 1.2575999
0.49503174 -0.16706476 1.2558182
0.50464112 -0.16499265 1.2544167
0.5121367 -0.16145737 1.25225
0.51552576 -0.15524019 1.2552223
0.51706636 -0.14497495 1.2535715
0.51320344 -0.13513939 1.2548572
0.64662713 -0.13663046 1.25475
