# .PCD v0.7 - Point Cloud Data file format
VERSION 0.7
FIELDS x y z
SIZE 4 4 4
TYPE F F F
COUNT 1 1 1
WIDTH 1427
HEIGHT 1
VIEWPOINT 0 0 0 1 0 0 0
POINTS 1427
DATA ascii
-0.7051549 -0.38536522 1.4460834
-0.69421351 -0.38555062 1.4467779
-0.68480766 -0.38569859 1.4473335
-0.67529136 -0.38578767 1.4476668
-0.66561699 -0.3857877 1.4476668
-0.6559425 -0.38578767 1.4476666
-0.6464169 -0.38587576 1.4480001
-0.63534564 -0.38600901 1.4485002
-0.62588274 -0.38614228 1.4490002
-0.97314072 -0.37916267 1.447
-0.96547616 -0.374596 1.443375
-0.95546871 -0.37469825 1.4422224
-0.94510174 -0.37440962 1.4411111
-0.93547058 -0.37440956 1.4411112
-0.92563951 -0.37491018 1.4418001
-0.91519123 -0.37453738 1.4427272
-0.9044835 -0.37487096 1.4428889
-0.89415222 -0.37458178 1.4417778
-0.88383532 -0.37429291 1.4406667
-0.8738026 -0.37251678 1.4400001
-0.86498129 -0.37331873 1.4400001
-0.85409784 -0.37503716 1.4399999
-0.84493303 -0.37412071 1.4400001
-0.83550251 -0.37420776 1.4403335
-0.82479715 -0.37444544 1.4412502
-0.81417197 -0.37472689 1.4423335
-0.80515301 -0.37501583 1.4434445
-0.79581368 -0.37515989 1.4440001
-0.78616375 -0.37515992 1.4440001
-0.7749055 -0.37515989 1.4440001
-0.7637645 -0.37521809 1.4442222
-0.75440305 -0.37536246 1.4447777
-0.74491972 -0.37544879 1.445111
-0.73548859 -0.37556475 1.4455556
-0.72588426 -0.3755936 1.4456667
-0.71622312 -0.3755936 1.4456668
-0.7053318 -0.37585485 1.4455454
-0.69434017 -0.37528008 1.4457
-0.68433505 -0.37576684 1.4463334
-0.67482489 -0.37585342 1.4466667
-0.66525912 -0.37591067 1.446889
-0.65564048 -0.37593928 1.447
-0.6464169 -0.3761991 1.4480001
-0.63512558 -0.37509835 1.4487336
-0.62491441 -0.37419948 1.4490002
-0.61781329 -0.37000337 1.4490001
-0.57262433 -0.37000337 1.4490001
-0.56552315 -0.37129447 1.4490001
-0.5548715 -0.37323114 1.4490001
-0.54357427 -0.37323114 1.449
-0.53469783 -0.37081033 1.4490001
-0.96470833 -0.36479759 1.443
-0.95539486 -0.3650316 1.4421113
-0.94510174 -0.36477846 1.4411111
-0.93539876 -0.36475053 1.4410001
-0.92576885 -0.36475059 1.4410001
-0.91532642 -0.36506698 1.4422501
-0.9046222 -0.36528471 1.4431111
-0.89511627 -0.36534044 1.4433334
-0.88478982 -0.36505917 1.4422224
-0.87440991 -0.36475012 1.441
-0.86578321 -0.36449745 1.4400001
-0.84300834 -0.36513901 1.4400001
-0.83537388 -0.36452532 1.4401114
-0.82479715 -0.3648138 1.44125
-0.81417197 -0.36508805 1.4423335
-0.80490583 -0.36525679 1.443
-0.79544622 -0.36534199 1.4433334
-0.78574055 -0.36531359 1.4432223
-0.77597606 -0.36525685 1.443
-0.765356 -0.36564171 1.4433637
-0.75443131 -0.36508796 1.4436001
-0.7442897 -0.36548308 1.4438889
-0.73475361 -0.36553931 1.4441112
-0.72521478 -0.36559507 1.4443334
-0.71556258 -0.36559507 1.4443336
-0.70591044 -0.36559507 1.4443334
-0.69484931 -0.36570013 1.4447498
-0.68391371 -0.36587584 1.4454446
-0.674514 -0.36601621 1.4460001
-0.66510534 -0.36615682 1.4465556
-0.65540826 -0.36567459 1.4472002
-0.6464169 -0.36490968 1.4480001
-0.6356678 -0.36389014 1.4483846
-0.62412524 -0.36346486 1.4486669
-0.61498892 -0.36314431 1.4490002
-0.57487339 -0.36305115 1.4488573
-0.56623942 -0.3642188 1.448
-0.55597329 -0.36643884 1.4476666
-0.54613167 -0.36632681 1.4472224
-0.53597379 -0.36546463 1.4470001
-0.52956438 -0.36279508 1.4460001
-0.97018397 -0.35449702 1.4450001
-0.96547288 -0.35635415 1.4441429
-0.95605785 -0.3556405 1.4431111
-0.94568485 -0.35536665 1.4420002
-0.93554306 -0.35517496 1.4412223
-0.92583996 -0.35514781 1.4411112
-0.91532636 -0.35542879 1.4422501
-0.90490031 -0.35575026 1.4435556
-0.89552975 -0.35586002 1.4440001
-0.8856079 -0.35575026 1.4435556
-0.87494999 -0.35533953 1.4418889
-0.86598414 -0.35495603 1.4403334
-0.84172517 -0.35487422 1.4400001
-0.83550233 -0.35495639 1.4403335
-0.82493997 -0.35524392 1.4415001
-0.81417197 -0.35544932 1.4423335
-0.80490577 -0.35561359 1.443
-0.79514027 -0.35555935 1.4427778
-0.78525633 -0.35545003 1.4423335
-0.77555752 -0.35542238 1.4422224
-0.76633275 -0.35561356 1.443
-0.75552058 -0.35590583 1.443
-0.74416518 -0.35514519 1.4424
-0.73384935 -0.35545003 1.4423333
-0.7242105 -0.35545003 1.4423336
-0.71479166 -0.35555929 1.4427778
-0.70547527 -0.35572338 1.4434446
-0.69472861 -0.35598326 1.4445
-0.68401915 -0.35627025 1.4456668
-0.67470813 -0.35484353 1.4464169
-0.66527194 -0.35496691 1.4469169
-0.65613884 -0.35465896 1.4474546
-0.6464169 -0.35362026 1.4480001
-0.63512748 -0.35362026 1.4480001
-0.62383801 -0.35362023 1.4480001
-0.61430222 -0.35370213 1.4483334
-0.60683882 -0.35321891 1.4490001
-0.57572037 -0.35378304 1.4486668
-0.56516606 -0.35459253 1.4471818
-0.55524862 -0.35629889 1.4457778
-0.54525137 -0.35608009 1.4448889
-0.53522432 -0.35583413 1.4438889
-0.52858782 -0.35569796 1.4433335
-0.97018397 -0.34805924 1.4450001
-0.96585423 -0.34592214 1.4447143
-0.95635223 -0.34610376 1.4435556
-0.94612241 -0.3458904 1.4426666
-0.93604785 -0.34573054 1.4420002
-0.92641133 -0.34573054 1.4420002
-0.91527385 -0.34577069 1.4421668
-0.90469158 -0.34602386 1.4432222
-0.89546055 -0.34618366 1.4438891
-0.88553947 -0.34607735 1.4434445
-0.87481487 -0.34565115 1.4416668
-0.86610401 -0.34589261 1.4400001
-0.83543801 -0.34530461 1.4402224
-0.82493991 -0.34561071 1.4415002
-0.81417197 -0.34581047 1.4423335
-0.80490583 -0.34597033 1.443
-0.79514027 -0.34591657 1.4427779
-0.78525627 -0.34580967 1.4423333
-0.77585626 -0.34591654 1.4427778
-0.76633269 -0.34597033 1.443
-0.75657344 -0.34591681 1.4427778
-0.74588603 -0.34605175 1.4420002
-0.73597968 -0.34508961 1.4410001
-0.72514611 -0.34549081 1.4410001
-0.71435136 -0.34570417 1.441889
-0.70542097 -0.34605026 1.4433333
-0.69467902 -0.34517753 1.4450666
-0.68441349 -0.34519744 1.4465002
-0.67503196 -0.34373218 1.4471111
-0.66556567 -0.34383726 1.4475555
-0.6560936 -0.34394357 1.4480001
-0.6464169 -0.34394357 1.4480001
-0.63609517 -0.34426612 1.4480001
-0.62457925 -0.343413 1.4470001
-0.61401945 -0.34386489 1.4476666
-0.60520077 -0.3437185 1.4487503
-0.57391536 -0.34482664 1.4490001
-0.56564873 -0.34386387 1.4476668
-0.55520612 -0.34499893 1.4456667
-0.54516232 -0.34551835 1.4438001
-0.53464818 -0.34581047 1.4423333
-0.52773327 -0.34709579 1.4410001
-0.96489918 -0.33593509 1.4432858
-0.95568931 -0.3362242 1.4425555
-0.94561207 -0.33606878 1.441889
-0.93583137 -0.33601701 1.4416667
-0.92619717 -0.33601701 1.4416668
-0.91506243 -0.33605549 1.4418335
-0.90406501 -0.33614624 1.4422222
-0.89449596 -0.33617237 1.4423333
-0.88465327 -0.33609495 1.442
-0.87420809 -0.33578369 1.4406668
-0.86738712 -0.33883557 1.4400001
-0.83505315 -0.33528486 1.4402502
-0.82498771 -0.33599666 1.4415835
-0.81442308 -0.33627501 1.4427778
-0.80463994 -0.33570701 1.4431
-0.79549199 -0.33481547 1.4434167
-0.78589147 -0.33483472 1.4435
-0.77511966 -0.33458313 1.4438002
-0.76467204 -0.33474138 1.4437274
-0.75508231 -0.33632705 1.443
-0.7449224 -0.33609393 1.4420002
-0.73597968 -0.33626217 1.4410001
-0.72514606 -0.33586088 1.4410001
-0.71424073 -0.3360163 1.4416668
-0.70523238 -0.33528426 1.4435456
-0.69552529 -0.334158 1.4453847
-0.68465042 -0.33403599 1.447
-0.67508358 -0.33408758 1.4472224
-0.66577029 -0.33426687 1.4480001
-0.6560936 -0.33426687 1.4480001
-0.6464169 -0.33426687 1.4480001
-0.63664305 -0.33421582 1.4477777
-0.62501884 -0.33403599 1.4470001
-0.61378407 -0.33406192 1.4471111
-0.60466945 -0.33436975 1.4484446
-0.59844655 -0.33288383 1.4490001
-0.57262433 -0.33772552 1.4490001
-0.56599581 -0.33439487 1.4485557
-0.5556758 -0.33401012 1.4468889
-0.54479527 -0.33461729 1.4444547
-0.5352537 -0.33570662 1.4431
-0.52846575 -0.33471984 1.4430001
-0.96500629 -0.3252078 1.4416366
-0.9547326 -0.3262569 1.4411112
-0.9445914 -0.32608086 1.4403335
-0.93503785 -0.32610595 1.4404445
-0.92562592 -0.3261812 1.4407779
-0.91613889 -0.32623103 1.4410001
-0.90490413 -0.326231 1.4410001
-0.89407039 -0.32663229 1.4410001
-0.88431293 -0.32577506 1.4404001
-0.87380254 -0.32600462 1.4400001
-0.86417937 -0.32279688 1.4400001
-0.85455614 -0.32279688 1.4400001
-0.8442933 -0.32368365 1.4411001
-0.83457983 -0.32518557 1.4420668
-0.82423967 -0.32509401 1.4430834
-0.81478405 -0.32516941 1.4434166
-0.80565447 -0.32482168 1.4438182
-0.79593587 -0.32374287 1.4442222
-0.78640568 -0.32379243 1.4444444
-0.7749055 -0.3236936 1.4440001
-0.76449066 -0.32412139 1.4438573
-0.75439346 -0.32461742 1.4430001
-0.74348873 -0.32492587 1.4423336
-0.7341693 -0.32414055 1.4417001
-0.72463745 -0.32516423 1.441357
-0.71461225 -0.32494494 1.4424167
-0.70597059 -0.32429117 1.4438001
-0.69520956 -0.3240298 1.4455
-0.68459761 -0.32434142 1.446889
-0.6749804 -0.32436603 1.447
-0.66536129 -0.32439119 1.4471114
-0.65594208 -0.32451597 1.4476668
-0.6464169 -0.32459021 1.4480001
-0.63654554 -0.32449082 1.4475555
-0.62594271 -0.32466617 1.4469001
-0.61463845 -0.32393119 1.4463637
-0.60420585 -0.32444125 1.4473335
-0.59546763 -0.32432741 1.4486252
-0.58634233 -0.32239354 1.4490001
-0.56616873 -0.32481435 1.4490002
-0.55584598 -0.32444075 1.4473335
-0.54529405 -0.32391772 1.4450002
-0.53470397 -0.3246994 1.4432727
-0.52769798 -0.32526413 1.4438334
-0.97107917 -0.31454885 1.4463334
-0.96340883 -0.31461805 1.4424286
-0.95471436 -0.31501335 1.4410834
-0.94453669 -0.31483135 1.44025
-0.93491173 -0.31483138 1.4402503
-0.92544764 -0.31488574 1.4405001
-0.91613883 -0.31499615 1.4410001
-0.90536743 -0.31445882 1.4406431
-0.89496297 -0.31488574 1.4405003
-0.88464886 -0.31534418 1.4405003
-0.87435865 -0.31497651 1.4409167
-0.86497933 -0.31506675 1.4413334
-0.85533911 -0.31487554 1.4421539
-0.84527922 -0.31470069 1.4433335
-0.8347342 -0.31416371 1.4445555
-0.82489091 -0.31409168 1.4442223
-0.81511354 -0.31404364 1.4440001
-0.80546367 -0.31404364 1.4440001
-0.79624188 -0.31421274 1.4447778
-0.78670812 -0.31426108 1.4449999
-0.77587044 -0.3143653 1.4440001
-0.76593089 -0.31342429 1.443
-0.75508231 -0.31382608 1.443
-0.74383175 -0.31382611 1.443
-0.73396266 -0.31372872 1.4425555
-0.72432184 -0.31372869 1.4425557
-0.71495682 -0.31385002 1.4431111
-0.70590973 -0.31411609 1.4443334
-0.69528985 -0.31440592 1.4456668
-0.68422961 -0.31450301 1.4461112
-0.67466938 -0.31455177 1.4463334
-0.6650548 -0.314576 1.4464446
-0.65564042 -0.31469604 1.447
-0.6461193 -0.3147693 1.4473335
-0.63625187 -0.31467211 1.446889
-0.62624574 -0.31450298 1.4461112
-0.61481702 -0.31442478 1.4457501
-0.60378838 -0.31455156 1.4463334
-0.59457898 -0.31479296 1.4474444
-0.58535564 -0.31503507 1.4485556
-0.5758521 -0.31513107 1.4490002
-0.56599587 -0.31503457 1.4485556
-0.55559075 -0.31462431 1.4466666
-0.54504246 -0.31411684 1.4443334
-0.53456575 -0.31363404 1.4421111
-0.52773327 -0.31339115 1.4410001
-0.96448261 -0.30430612 1.4455001
-0.95470703 -0.30428687 1.4435
-0.94585621 -0.30455694 1.442875
-0.93572921 -0.30375534 1.4425
-0.92555398 -0.30404156 1.4423336
-0.91510522 -0.30395028 1.4419003
-0.90419197 -0.3041659 1.4414001
-0.8940134 -0.30387762 1.4415556
-0.88465226 -0.30397156 1.4420002
-0.87535298 -0.30408844 1.4425558
-0.86497349 -0.30394775 1.4432727
-0.85423774 -0.30467272 1.4438002
-0.84445232 -0.30453423 1.4446666
-0.83499122 -0.30460447 1.4449999
-0.82495469 -0.30446395 1.4443334
-0.81511354 -0.30439365 1.4440001
-0.80546367 -0.30439365 1.4440001
-0.7958746 -0.30441734 1.4441112
-0.78628498 -0.30444103 1.4442223
-0.77627546 -0.30430025 1.4435556
-0.76627392 -0.3041597 1.4428889
-0.75523454 -0.30436069 1.4424546
-0.74442261 -0.30384058 1.4428999
-0.73418856 -0.30418283 1.443
-0.72460091 -0.30420604 1.4431111
-0.71534216 -0.30437002 1.443889
-0.70612717 -0.30455738 1.4447778
-0.69533008 -0.30476257 1.4457501
-0.6841774 -0.30481526 1.4460001
-0.674514 -0.30481529 1.4460001
-0.66485071 -0.30481526 1.4460001
-0.65523744 -0.30483899 1.4461112
-0.64567286 -0.30488628 1.4463334
-0.63576335 -0.30476892 1.4457779
-0.62581277 -0.30462813 1.445111
-0.61610776 -0.30460447 1.4449999
-0.60515475 -0.30476257 1.4457501
-0.59439725 -0.30502605 1.447
-0.58513135 -0.30523685 1.4480001
-0.57554269 -0.3052842 1.4482223
-0.56569165 -0.30519024 1.4477779
-0.55516374 -0.30472234 1.4455556
-0.54437155 -0.3040899 1.4425557
-0.53436911 -0.30405769 1.4405
-0.52736706 -0.3067582 1.4400001
-0.96551144 -0.29601413 1.4482501
-0.95497066 -0.2952185 1.4463334
-0.94465137 -0.29501492 1.4453334
-0.93477631 -0.29494637 1.4450002
-0.92462254 -0.29478836 1.4442223
-0.91440773 -0.29460713 1.4433333
-0.90420479 -0.29442543 1.4424444
-0.89449608 -0.29440275 1.4423335
-0.88519788 -0.29451668 1.4428889
-0.87562299 -0.29453957 1.443
-0.86492139 -0.29472652 1.4439168
-0.85371327 -0.29474375 1.4440001
-0.84412801 -0.29476663 1.4441113
-0.83479857 -0.29488054 1.4446666
-0.82489085 -0.29478934 1.4442223
-0.81511354 -0.29474375 1.4440001
-0.80540192 -0.29472128 1.443889
-0.79562992 -0.29467642 1.4436667
-0.78592205 -0.29465377 1.4435556
-0.77603602 -0.29456252 1.4431111
-0.76592016 -0.29438111 1.4422224
-0.75616509 -0.29433551 1.4420002
-0.74496514 -0.29435268 1.4420835
-0.73413175 -0.29451719 1.4428889
-0.72487938 -0.29467568 1.4436668
-0.71545231 -0.29476616 1.4441113
-0.70623618 -0.29494786 1.4449999
-0.69533008 -0.29510093 1.4457501
-0.68422967 -0.29517439 1.4461112
-0.674721 -0.29524192 1.4464445
-0.66515714 -0.29528728 1.446667
-0.65548944 -0.29528725 1.4466667
-0.64557385 -0.29517442 1.4461112
-0.63551927 -0.29499322 1.4452223
-0.62537974 -0.29476666 1.4441113
-0.61546338 -0.29462573 1.4449999
-0.60485756 -0.29546311 1.4460909
-0.59457898 -0.29544652 1.4474444
-0.58513135 -0.29556015 1.4480001
-0.57545465 -0.29556015 1.4480001
-0.5655182 -0.2954241 1.4473335
-0.55495065 -0.29494786 1.4450001
-0.54416198 -0.29433548 1.442
-0.53538632 -0.29392722 1.4400001
-0.96318626 -0.28608099 1.449
-0.9560709 -0.28588301 1.4480001
-0.94581306 -0.28570777 1.4471114
-0.93585503 -0.2856198 1.4466668
-0.92540509 -0.28537872 1.4454445
-0.91490078 -0.28511521 1.4441112
-0.90483165 -0.28498337 1.4434445
-0.89497864 -0.28491804 1.4431111
-0.8852663 -0.28489631 1.443
-0.87562299 -0.28489631 1.443
-0.86557645 -0.28529769 1.4434
-0.85546207 -0.28496292 1.4433333
-0.84486008 -0.28467655 1.4433637
-0.83434898 -0.28507206 1.4438891
-0.82476354 -0.28509381 1.4440001
-0.81511354 -0.28509378 1.4440001
-0.80503029 -0.28494051 1.4432223
-0.79526252 -0.28489634 1.443
-0.78561926 -0.28489637 1.443
-0.77597606 -0.28489634 1.443
-0.76580167 -0.28469893 1.4420002
-0.75616509 -0.28469893 1.4420002
-0.74492246 -0.28469893 1.4420003
-0.73407495 -0.28485224 1.4427778
-0.72493541 -0.28504965 1.4437779
-0.71572727 -0.28522488 1.4446666
-0.70564091 -0.28498882 1.4450999
-0.69492382 -0.28574535 1.4458183
-0.68438685 -0.28557616 1.4464444
-0.67503196 -0.28570777 1.4471114
-0.66556567 -0.285795 1.4475555
-0.65594262 -0.28581694 1.4476666
-0.64597094 -0.28568557 1.447
-0.63571471 -0.28542233 1.4456668
-0.62576431 -0.28529119 1.4449999
-0.61471009 -0.28538954 1.4455
-0.60397393 -0.28564197 1.4467778
-0.59471625 -0.28583938 1.4477777
-0.58513135 -0.28588352 1.4480001
-0.57545465 -0.28588352 1.4480001
-0.5655182 -0.28575188 1.4473335
-0.55507821 -0.28535652 1.4453334
-0.5445388 -0.28489536 1.4430001
-0.53469372 -0.28417289 1.4413751
-0.52773327 -0.28450149 1.4410001
-0.96399319 -0.27559066 1.4490001
-0.95607078 -0.27620733 1.448
-0.9458859 -0.2760587 1.4472224
-0.93607014 -0.27601612 1.447
-0.92575997 -0.27582538 1.4460001
-0.91560405 -0.27567646 1.4452223
-0.90559745 -0.27557027 1.4446667
-0.8957364 -0.27550671 1.4443334
-0.88594824 -0.2754648 1.4441113
-0.87602824 -0.27538025 1.4436668
-0.86597973 -0.27525309 1.443
-0.85620475 -0.27521119 1.4427779
-0.84525782 -0.27545917 1.4425454
-0.83436221 -0.27489394 1.4427999
-0.8244459 -0.27533862 1.4434445
-0.81480014 -0.27533862 1.4434445
-0.80490577 -0.27525309 1.443
-0.79526252 -0.27525309 1.443
-0.78561926 -0.27525309 1.443
-0.775976 -0.27525309 1.443
-0.7661562 -0.27518904 1.4426668
-0.75622362 -0.27508327 1.4421113
-0.74505091 -0.27510965 1.4422501
-0.73441392 -0.27533761 1.4434446
-0.72543716 -0.27559146 1.4447778
-0.7156446 -0.27546418 1.4458001
-0.704808 -0.27616963 1.4462727
-0.69405353 -0.27590939 1.4464445
-0.68465042 -0.27601612 1.447
-0.67529088 -0.27614275 1.4476666
-0.66577023 -0.27620685 1.4480001
-0.6560936 -0.27620685 1.4480001
-0.6463182 -0.27616417 1.4477779
-0.63615441 -0.27595201 1.4466668
-0.6262458 -0.2758463 1.4461112
-0.6150648 -0.27588838 1.4463334
-0.60411334 -0.27603707 1.4471111
-0.59480798 -0.27620685 1.4480001
-0.58513135 -0.27620685 1.4480001
-0.57545459 -0.27620685 1.4480001
-0.56556159 -0.27610064 1.4474444
-0.55558974 -0.27595201 1.446667
-0.5453769 -0.27567574 1.4452223
-0.53530622 -0.27546379 1.4441112
-0.5290761 -0.27557027 1.4446667
-0.97362268 -0.26269633 1.4482
-0.96622258 -0.26540786 1.4482728
-0.95541066 -0.2663466 1.447
-0.94537723 -0.26624456 1.4464446
-0.93556732 -0.26620343 1.4462223
-0.92575997 -0.26616204 1.4460001
-0.91609669 -0.26616204 1.4460001
-0.9063639 -0.26614133 1.445889
-0.8964259 -0.26605928 1.4454445
-0.88635737 -0.26593679 1.4447778
-0.8760283 -0.26573256 1.4436669
-0.86578012 -0.26554897 1.4426666
-0.85567737 -0.26540554 1.441889
-0.84591085 -0.26536512 1.4416668
-0.8348152 -0.26541057 1.4419168
-0.82393819 -0.26552874 1.4425555
-0.81454897 -0.26560983 1.443
-0.80490583 -0.26560983 1.443
-0.79526252 -0.26560983 1.443
-0.78598177 -0.26573205 1.4436668
-0.77490544 -0.26579392 1.4440001
-0.76433927 -0.26525486 1.4435714
-0.75464398 -0.26590204 1.443
-0.74388885 -0.26563007 1.4431111
-0.73486626 -0.26585525 1.4443334
-0.72492462 -0.26588532 1.4460909
-0.71434528 -0.26517561 1.4473847
-0.70435542 -0.26487082 1.4477501
-0.69468027 -0.26487082 1.4477501
-0.68508393 -0.26490191 1.4479166
-0.67544681 -0.2649174 1.4480001
-0.66577023 -0.26491743 1.4480001
-0.6560936 -0.2649174 1.4480001
-0.6464169 -0.26491743 1.4480001
-0.63675547 -0.26575598 1.4473002
-0.62501878 -0.2663461 1.4470001
-0.61345702 -0.26571938 1.4471
-0.60437995 -0.26487103 1.4477501
-0.59480798 -0.2649174 1.4480001
-0.58513135 -0.2649174 1.4480001
-0.57545459 -0.26491737 1.4480001
-0.56584293 -0.26494732 1.4481667
-0.55537128 -0.2645466 1.4485003
-0.54490513 -0.26496115 1.4482502
-0.53530204 -0.26634467 1.447
-0.52806938 -0.26702711 1.4472001
-0.97381097 -0.25362799 1.4480001
-0.96482515 -0.2541154 1.4471003
-0.9550724 -0.25585493 1.446
-0.94465089 -0.25638124 1.4453334
-0.93513554 -0.25642067 1.4455556
-0.92561746 -0.25645983 1.4457779
-0.91609669 -0.25649872 1.4460001
-0.9063639 -0.25647923 1.445889
-0.89649463 -0.25642067 1.4455556
-0.88635743 -0.25628221 1.4447777
-0.87596083 -0.25606537 1.4435556
-0.86558038 -0.25584832 1.4423335
-0.85547996 -0.25571033 1.4415556
-0.84551972 -0.25561178 1.4410001
-0.83452511 -0.25568572 1.4414169
-0.82362109 -0.25578922 1.4420002
-0.81423467 -0.25586829 1.4424444
-0.80490583 -0.25596657 1.443
-0.79544556 -0.2560257 1.4433334
-0.78519082 -0.25591561 1.4443637
-0.77440989 -0.25510943 1.4451537
-0.76417607 -0.25471029 1.4450001
-0.75411355 -0.25618288 1.4442223
-0.74434733 -0.25614399 1.4440001
-0.73509264 -0.2562817 1.4447778
-0.72469044 -0.2549763 1.4465001
-0.71415359 -0.25362796 1.4480001
-0.70458484 -0.25366741 1.4482223
-0.69496024 -0.25368711 1.4483333
-0.68512362 -0.25362796 1.4480001
-0.67544687 -0.25362799 1.4480001
-0.66577029 -0.25362796 1.4480001
-0.6559425 -0.25357032 1.4476666
-0.6461193 -0.25351194 1.4473333
-0.63600743 -0.2546249 1.4470001
-0.62501889 -0.25506446 1.4470003
-0.61426115 -0.25472009 1.4475455
-0.60448474 -0.25362796 1.4480001
-0.59480798 -0.25362799 1.4480001
-0.58513135 -0.25362796 1.4480001
-0.57571912 -0.25374424 1.4486669
-0.56724471 -0.25487909 1.4490002
-0.97304958 -0.24604547 1.4476668
-0.96471035 -0.24368943 1.4464444
-0.95379734 -0.24461676 1.4449999
-0.94410616 -0.24497162 1.4445
-0.93450665 -0.24498565 1.4445834
-0.92490649 -0.24499971 1.4446667
-0.91514629 -0.24497163 1.4445001
-0.9054932 -0.24497163 1.4445001
-0.89578825 -0.24495739 1.4444166
-0.88588035 -0.24649453 1.4440001
-0.87562346 -0.24632382 1.4430001
-0.86537963 -0.24615261 1.4420002
-0.85574305 -0.24615264 1.4420002
-0.84610641 -0.24615261 1.4420002
-0.83486372 -0.24615262 1.4420003
-0.82381153 -0.24620877 1.4423335
-0.81442332 -0.24628489 1.4427779
-0.80463994 -0.24569707 1.4431
-0.79576725 -0.24487095 1.4439168
-0.78526753 -0.24510741 1.4453125
-0.77466547 -0.24370715 1.4465556
-0.76505733 -0.24372588 1.4466668
-0.75495487 -0.24519515 1.4458333
-0.74512047 -0.24513899 1.4455
-0.73550272 -0.24515319 1.4455833
-0.7246905 -0.24369855 1.4465002
-0.71376967 -0.24382073 1.4472224
-0.70415264 -0.24383968 1.4473335
-0.6944803 -0.24383968 1.4473335
-0.68480814 -0.24383968 1.4473335
-0.67513597 -0.24383968 1.4473335
-0.66536176 -0.24380176 1.4471114
-0.65554005 -0.24374583 1.4467778
-0.64582163 -0.24372737 1.4466667
-0.6363005 -0.24378279 1.447
-0.62519783 -0.24385284 1.4474168
-0.61416125 -0.24395129 1.4480001
-0.60457718 -0.24398822 1.4482223
-0.59503591 -0.24404413 1.4485557
-0.58588815 -0.24450189 1.4488752
-0.57665902 -0.24654059 1.4490001
-0.97266889 -0.23338674 1.4475001
-0.96471035 -0.23402268 1.4464444
-0.95387024 -0.23373529 1.4446666
-0.94377953 -0.23362745 1.4440001
-0.93412948 -0.23362742 1.4440001
-0.92440861 -0.23360971 1.4438891
-0.91447788 -0.23353828 1.4434445
-0.90469235 -0.23350209 1.4432223
-0.89490944 -0.23346564 1.443
-0.8851133 -0.23503278 1.44275
-0.87506694 -0.23492377 1.4420835
-0.86508769 -0.23534797 1.4420003
-0.85579234 -0.23492323 1.4420835
-0.84508562 -0.23507243 1.4430001
-0.83412457 -0.23515321 1.4435
-0.82471561 -0.23522079 1.4439168
-0.8151136 -0.23523408 1.4440001
-0.80585712 -0.23482512 1.4441819
-0.79529327 -0.23352541 1.4451817
-0.78489143 -0.2343374 1.4464
-0.77526015 -0.23422019 1.4476666
-0.76576251 -0.2342746 1.4480001
-0.75573826 -0.23416622 1.4473335
-0.7457794 -0.23407634 1.4467778
-0.73588502 -0.23400447 1.4463334
-0.72506171 -0.23430309 1.4463637
-0.71502459 -0.23403277 1.4465001
-0.70480788 -0.23370294 1.4462729
-0.69389367 -0.23396924 1.4461112
-0.68433499 -0.23400572 1.4463335
-0.6746695 -0.23400569 1.4463335
-0.66490203 -0.23396927 1.4461112
-0.65518737 -0.23395103 1.4460001
-0.64552402 -0.23395103 1.4460001
-0.63610435 -0.23404115 1.4465556
-0.62530583 -0.23422088 1.4476668
-0.61439621 -0.23436427 1.4485556
-0.60530561 -0.23483987 1.4490002
-0.59683263 -0.23766418 1.4490001
-0.54196036 -0.23120861 1.4490001
-0.53352243 -0.23266181 1.4480001
-0.52956438 -0.23072991 1.4460001
-0.97459847 -0.22508121 1.4481429
-0.96471047 -0.22435689 1.4464444
-0.95365018 -0.2240292 1.4443334
-0.94506055 -0.22390068 1.4435
-0.93519741 -0.22384858 1.4431666
-0.92383927 -0.22382239 1.443
-0.91419601 -0.22382239 1.443
-0.90455276 -0.22382239 1.443
-0.89490944 -0.22382239 1.443
-0.88485795 -0.22371899 1.4423336
-0.87494892 -0.2236498 1.441889
-0.86552012 -0.22426251 1.4417002
-0.85580873 -0.22368476 1.4421113
-0.84528035 -0.22387427 1.4433333
-0.83460534 -0.2240292 1.4443334
-0.82546109 -0.22416681 1.4452223
-0.81605422 -0.22423527 1.4456668
-0.8049686 -0.2242877 1.4460001
-0.79369479 -0.22428772 1.4460001
-0.78457361 -0.22444279 1.447
-0.77537942 -0.22458094 1.4478889
-0.76576251 -0.22459793 1.4480001
-0.756028 -0.22458093 1.4478889
-0.74589366 -0.22444282 1.447
-0.73599839 -0.22437413 1.4465556
-0.72605163 -0.22428772 1.4460001
-0.71638834 -0.22428772 1.4460001
-0.70511454 -0.2242877 1.4460001
-0.69384062 -0.22428772 1.4460001
-0.68417734 -0.22428772 1.4460001
-0.674514 -0.22428769 1.4460001
-0.66485071 -0.22428772 1.4460001
-0.65518737 -0.22428772 1.4460001
-0.64552402 -0.22428772 1.4460001
-0.63595796 -0.22432242 1.4462223
-0.62519771 -0.22450761 1.4474168
-0.61444336 -0.22470134 1.4486669
-0.60812992 -0.22475304 1.449
-0.55261201 -0.22410747 1.4490001
-0.54534227 -0.22407193 1.4475715
-0.53604901 -0.22430666 1.4461112
-0.52883196 -0.22397898 1.4440001
-0.97282505 -0.21697193 1.4473333
-0.96434033 -0.21460815 1.445889
-0.95514804 -0.21435267 1.4441668
-0.94634026 -0.21417911 1.443
-0.93508977 -0.21417914 1.443
-0.92383927 -0.21417911 1.443
-0.91419601 -0.2141791 1.443
-0.90455276 -0.21417911 1.443
-0.89490944 -0.21417913 1.443
-0.88485795 -0.21408018 1.4423335
-0.87501609 -0.21403068 1.4420002
-0.86537963 -0.2140307 1.4420002
-0.85594034 -0.21407966 1.4423335
-0.84523159 -0.21421623 1.4432501
-0.83460522 -0.21437705 1.4443334
-0.82552433 -0.21452546 1.4453334
-0.81624252 -0.2146244 1.4460001
-0.8049686 -0.2146244 1.4460001
-0.79369479 -0.2146244 1.4460001
-0.78421164 -0.21467437 1.4463334
-0.77484393 -0.21475658 1.446889
-0.76540989 -0.21482305 1.4473333
-0.75550592 -0.21475658 1.4468888
-0.74555051 -0.21467437 1.4463334
-0.73571491 -0.21462439 1.4460001
-0.72605163 -0.21462442 1.4460001
-0.71579319 -0.21431692 1.4461
-0.70494062 -0.21499762 1.4465457
-0.69416046 -0.21472263 1.4466667
-0.68454504 -0.21473937 1.4467779
-0.6749804 -0.21477281 1.447
-0.6652596 -0.21475609 1.446889
-0.65543926 -0.21470612 1.4465557
-0.64567286 -0.21467313 1.4463334
-0.63615346 -0.21472286 1.4466667
-0.625126 -0.21480995 1.4472502
-0.61425513 -0.21495448 1.4482223
-0.60683882 -0.21442413 1.4490001
-0.5653618 -0.21264884 1.4490001
-0.55610234 -0.21492225 1.4480002
-0.54546148 -0.21454269 1.4454445
-0.53489602 -0.21418063 1.4430001
-0.52637649 -0.21449459 1.4408
-0.96368504 -0.20453987 1.4462858
-0.95525843 -0.20472449 1.4443334
-0.94634026 -0.20453589 1.443
-0.93508977 -0.20453586 1.443
-0.92383927 -0.20453589 1.443
-0.91419601 -0.20453587 1.443
-0.90420479 -0.20445785 1.4424444
-0.89449596 -0.20444211 1.4423333
-0.88465279 -0.2043941 1.4420002
-0.87501609 -0.20439412 1.4420002
-0.86557919 -0.20444088 1.4423335
-0.85575247 -0.20422837 1.4431
-0.84507257 -0.20493098 1.4437274
-0.83454138 -0.20470935 1.4442223
-0.82539785 -0.20483534 1.445111
-0.81611675 -0.2049301 1.4457779
-0.80496877 -0.20496111 1.4460001
-0.79369479 -0.20496111 1.4460001
-0.78403145 -0.20496111 1.4460001
-0.77436823 -0.20496109 1.4460001
-0.76482254 -0.20499307 1.4462223
-0.75498378 -0.20494561 1.445889
-0.74520642 -0.20491458 1.4456668
-0.73565811 -0.20494561 1.445889
-0.72605163 -0.20496111 1.4460001
-0.715065 -0.20504357 1.4465834
-0.7039904 -0.20510285 1.447
-0.69442677 -0.20513383 1.4472224
-0.68491304 -0.20518082 1.4475555
-0.67534304 -0.20521256 1.4477779
-0.66577029 -0.20524457 1.4480001
-0.65594262 -0.20519656 1.4476666
-0.64626813 -0.20519656 1.4476666
-0.63501751 -0.20520855 1.4477501
-0.62383801 -0.20524457 1.4480001
-0.61416137 -0.20524457 1.4480001
-0.60480899 -0.20535509 1.4487779
-0.59844655 -0.20215854 1.4490001
-0.57477617 -0.20431042 1.4490002
-0.56577849 -0.20524506 1.448
-0.55546218 -0.20500883 1.4463334
-0.54491669 -0.20467763 1.444
-0.53444254 -0.20436287 1.4417778
-0.52748913 -0.20415713 1.4403334
-0.97242206 -0.19561295 1.4483334
-0.96508163 -0.19543284 1.447
-0.95365018 -0.19507271 1.4443333
-0.94473308 -0.1948926 1.443
-0.93508977 -0.1948926 1.443
-0.92383927 -0.1948926 1.443
-0.91384482 -0.19481783 1.4424444
-0.90371746 -0.19471304 1.4416668
-0.89422572 -0.19505806 1.4412501
-0.88443547 -0.19424835 1.4406002
-0.87447625 -0.19463824 1.4411111
-0.86544555 -0.19477305 1.4421114
-0.85492581 -0.19493783 1.4433333
-0.84406328 -0.19502768 1.4440001
-0.83422083 -0.19498339 1.4436668
-0.82469958 -0.19501339 1.443889
-0.81542683 -0.19510347 1.4445555
-0.8050527 -0.1955051 1.4453635
-0.79428375 -0.19496241 1.4459002
-0.78403145 -0.19529778 1.4460001
-0.77436823 -0.19529778 1.4460001
-0.76435274 -0.19520825 1.4453334
-0.75451934 -0.19516274 1.4449999
-0.74486274 -0.19516274 1.4449999
-0.73565811 -0.19528253 1.445889
-0.72481614 -0.1953987 1.4467502
-0.7137149 -0.19544761 1.4471111
-0.70431429 -0.19552241 1.4476666
-0.6948002 -0.19556792 1.4480001
-0.68512362 -0.19556791 1.4480001
-0.67544687 -0.19556792 1.4480001
-0.66592306 -0.19561245 1.4483334
-0.65489489 -0.19569153 1.4489169
-0.64363557 -0.19570298 1.4490002
-0.6339038 -0.19568773 1.4488893
-0.62383801 -0.19556792 1.4480001
-0.61416131 -0.19556792 1.4480001
-0.604577 -0.19559819 1.4482223
-0.59562218 -0.19529951 1.4490002
-0.58507431 -0.19478075 1.4490002
-0.57563198 -0.19562818 1.4484445
-0.5655182 -0.19547787 1.4473335
-0.55520594 -0.19525279 1.4456668
-0.54479039 -0.19498317 1.4436668
-0.53440112 -0.19471253 1.4416668
-0.52773327 -0.1946225 1.4410001
-0.97219825 -0.18911681 1.4480001
-0.96426237 -0.18608665 1.4463751
-0.95365018 -0.18542053 1.4443334
-0.94473296 -0.18524934 1.443
-0.93508977 -0.18524937 1.443
-0.9247576 -0.18570857 1.443
-0.91570389 -0.18512097 1.4420002
-0.90536946 -0.18497859 1.4408889
-0.89689827 -0.18550578 1.4400001
-0.88502961 -0.18807195 1.4400001
-0.87273335 -0.18593347 1.4400001
-0.86477852 -0.1849931 1.441
-0.8559404 -0.18516427 1.4423333
-0.8454712 -0.18553013 1.4429091
-0.83413142 -0.18485178 1.4424
-0.82368433 -0.18513648 1.4421111
-0.81436038 -0.18520755 1.4426666
-0.80533898 -0.18534996 1.4437778
-0.79577523 -0.18584152 1.4451001
-0.78495544 -0.18528412 1.4455454
-0.77401167 -0.18554939 1.4453334
-0.76411748 -0.1854921 1.4448888
-0.75440305 -0.18547808 1.4447777
-0.7450338 -0.18554889 1.4453334
-0.73594028 -0.1856913 1.4464446
-0.72515017 -0.18581581 1.4474168
-0.71415359 -0.18589126 1.4480001
-0.70447701 -0.18589126 1.4480001
-0.69485337 -0.18590528 1.4481111
-0.68533361 -0.18594757 1.4484446
-0.67575788 -0.18597609 1.4486668
-0.66623008 -0.1860196 1.4490002
-0.6549328 -0.18601961 1.4490002
-0.64363563 -0.1860196 1.4490002
-0.63385546 -0.18599133 1.4487779
-0.62379044 -0.18587723 1.4478889
-0.61373717 -0.18576285 1.447
-0.60443807 -0.18587725 1.4478889
-0.59512693 -0.18599133 1.448778
-0.58549082 -0.18600559 1.4488891
-0.57545465 -0.18589126 1.4480001
-0.56530088 -0.18573457 1.4467779
-0.55503547 -0.18553488 1.4452223
-0.54449713 -0.18523532 1.442889
-0.53419513 -0.18500736 1.4411111
-0.52683979 -0.18415968 1.44075
-0.96133208 -0.1766542 1.4450001
-0.95394367 -0.17582171 1.4447778
-0.94434512 -0.17535558 1.4442501
-0.93438435 -0.17597553 1.4434001
-0.92475766 -0.17514689 1.443
-0.91637307 -0.17588593 1.4420002
-0.90630013 -0.17532215 1.4406668
-0.89946443 -0.17524101 1.4400001
-0.86400259 -0.17568761 1.4403751
-0.85547853 -0.17543057 1.4415556
-0.84610641 -0.1754844 1.4420002
-0.83608365 -0.17540377 1.4413334
-0.82613277 -0.17533617 1.4407779
-0.81497723 -0.17535312 1.4409167
-0.80447119 -0.17551219 1.4422224
-0.79556847 -0.17567444 1.4435556
-0.78496218 -0.17581941 1.44475
-0.77383262 -0.17584947 1.4449999
-0.76394171 -0.17579538 1.4445556
-0.75422859 -0.17578162 1.4444444
-0.74509108 -0.17590332 1.4454446
-0.73605335 -0.17605232 1.4466667
-0.7252751 -0.17617421 1.4476666
-0.71415359 -0.17621458 1.4480001
-0.70447701 -0.17621458 1.4480001
-0.69522655 -0.1763225 1.4488893
-0.68559682 -0.17633626 1.4490002
-0.67591339 -0.17633626 1.4490002
-0.66623008 -0.17633627 1.4490002
-0.6549328 -0.17633627 1.4490002
-0.64363557 -0.17633627 1.4490002
-0.63370991 -0.17626891 1.4484445
-0.62379038 -0.17620081 1.4478889
-0.61392546 -0.17614621 1.4474444
-0.60443807 -0.17620081 1.4478889
-0.59508127 -0.17629521 1.4486669
-0.58540148 -0.1762957 1.4486668
-0.57532293 -0.176174 1.4476668
-0.56508434 -0.17599846 1.4462223
-0.55465174 -0.17575532 1.4442222
-0.54403615 -0.17544459 1.4416667
-0.53604531 -0.17742081 1.4403334
-0.52576315 -0.17844875 1.4400001
-0.96119207 -0.16952898 1.4460001
-0.9560045 -0.1653008 1.4474546
-0.94486928 -0.16626854 1.4456668
-0.93456119 -0.16615404 1.4446666
-0.9241246 -0.16601372 1.4434445
-0.91412288 -0.16547477 1.44225
-0.90541279 -0.1661582 1.4407142
-0.89866251 -0.16481586 1.4400001
-0.86257553 -0.16561781 1.4400001
-0.85508341 -0.16572028 1.4408889
-0.84565037 -0.16575885 1.4412223
-0.83588982 -0.1657328 1.4410001
-0.82575041 -0.16563031 1.4401112
-0.81547803 -0.1659503 1.4401003
-0.80485475 -0.16542068 1.4408183
-0.79483318 -0.16587411 1.4422224
-0.78592098 -0.16602699 1.4435556
-0.77521747 -0.16614513 1.4445833
-0.76417607 -0.16619286 1.4449999
-0.75451934 -0.16619286 1.4449999
-0.74526316 -0.16628207 1.4457779
-0.73599684 -0.166372 1.4465556
-0.72494203 -0.16642287 1.4470001
-0.7137149 -0.1664359 1.4471114
-0.70418376 -0.16536497 1.4480001
-0.69515961 -0.16501084 1.4487501
-0.68559676 -0.16503903 1.4490002
-0.67591339 -0.1670564 1.4490002
-0.66623014 -0.16503902 1.4490002
-0.65493274 -0.16503902 1.449
-0.64392906 -0.16547918 1.4490002
-0.63424683 -0.16461471 1.4485385
-0.62405348 -0.16498096 1.4485002
-0.61472446 -0.16543674 1.4486365
-0.60530335 -0.1675584 1.4488574
-0.59602571 -0.16907376 1.4490001
-0.58472848 -0.16665292 1.4490002
-0.57542247 -0.16491498 1.4479166
-0.5649544 -0.16629511 1.445889
-0.55418253 -0.16596283 1.4430002
-0.54555809 -0.16632836 1.4406002
-0.9651069 -0.15124303 1.4482501
-0.95528668 -0.15420695 1.4473
-0.94503284 -0.15502609 1.4459168
-0.93496931 -0.155871 1.4448
-0.92419571 -0.15638001 1.4435557
-0.91370368 -0.15623556 1.4422222
-0.90490407 -0.15610291 1.4410001
-0.89786059 -0.15599459 1.4400001
-0.86097163 -0.15759847 1.4400001
-0.85481912 -0.15604299 1.4404445
-0.84551978 -0.15610293 1.4410001
-0.83601892 -0.1561265 1.4412223
-0.8260693 -0.15606631 1.4406668
-0.81612659 -0.1560064 1.4401114
-0.80506808 -0.15603971 1.4404168
-0.79440451 -0.15615132 1.4414446
-0.78543705 -0.15628347 1.4426666
-0.77478081 -0.15598287 1.4444616
-0.76417607 -0.15492679 1.4449998
-0.75456268 -0.15493582 1.4450833
-0.74516326 -0.15499036 1.4455833
-0.73558778 -0.15500803 1.4457501
-0.72523797 -0.15551819 1.4462143
-0.7144748 -0.15465833 1.4467859
-0.70460403 -0.1542379 1.4476
-0.69511944 -0.1537064 1.4486669
-0.68559688 -0.15374178 1.4490002
-0.67591339 -0.15212789 1.4490002
-0.66623008 -0.15374178 1.4490002
-0.65576565 -0.15403315 1.4487002
-0.64595819 -0.15321949 1.447875
-0.63501751 -0.15360968 1.4477501
-0.6240766 -0.15369485 1.4485556
-0.61700636 -0.15293483 1.4490001
-0.5753004 -0.15410545 1.4486252
-0.56499803 -0.15503402 1.4460001
-0.55409771 -0.15629576 1.4427779
-0.54661345 -0.15599459 1.4400001
-0.9649229 -0.14342019 1.4458001
-0.95423687 -0.14368409 1.4452224
-0.94434524 -0.14398882 1.4442501
-0.93430227 -0.14466816 1.4433637
-0.92512548 -0.14502008 1.4425001
-0.91581297 -0.14494409 1.4417502
-0.9065091 -0.14486805 1.4410001
-0.89786053 -0.14637138 1.4400001
-0.86097163 -0.14316364 1.4400001
-0.85495096 -0.14483361 1.4406668
-0.84531313 -0.14453006 1.4422143
-0.83450586 -0.14548348 1.4425714
-0.82437783 -0.14434446 1.4422001
-0.81449872 -0.14535454 1.4412857
-0.80388308 -0.14488426 1.4411668
-0.79448122 -0.14492604 1.4415835
-0.78543705 -0.14503561 1.4426666
-0.77533376 -0.14486787 1.4442002
-0.76417607 -0.14366074 1.4449999
-0.75451934 -0.14366075 1.4449999
-0.74463391 -0.14361729 1.4445556
-0.73492324 -0.14360625 1.4444445
-0.72560507 -0.14367205 1.445111
-0.7150237 -0.14380987 1.4465002
-0.70442271 -0.14394771 1.4478889
-0.69517303 -0.14403608 1.448778
-0.68559676 -0.14405841 1.4490002
-0.67591339 -0.14405841 1.4490002
-0.66602629 -0.14401472 1.4485557
-0.65594316 -0.14392635 1.4476666
-0.64577228 -0.14381614 1.4465557
-0.63600737 -0.14379403 1.4463334
-0.62505382 -0.14386858 1.4470835
-0.6148293 -0.14361821 1.4486252
-0.606516 -0.14083064 1.4490001
-0.57410651 -0.14402491 1.4486667
-0.56538874 -0.14385958 1.447
-0.55437452 -0.14511828 1.4435
-0.54550952 -0.14415051 1.4407145
-0.96622109 -0.13390182 1.443889
-0.95580435 -0.13420568 1.4437001
-0.94585675 -0.13340552 1.4428749
-0.93619227 -0.133747 1.4422224
-0.92619759 -0.13369548 1.4416668
-0.91613889 -0.13363317 1.4410001
-0.90574837 -0.13421026 1.4403002
-0.89732593 -0.13460967 1.4400001
-0.8705948 -0.13033269 1.4400001
-0.86373258 -0.13393733 1.4404445
-0.85500371 -0.13349992 1.4427273
-0.84499806 -0.1342783 1.4445001
-0.83492726 -0.13399258 1.4448889
-0.82476401 -0.13391039 1.444
-0.81448674 -0.13380758 1.4428889
-0.8044101 -0.13373595 1.4421113
-0.79477239 -0.13373595 1.4421113
-0.78561926 -0.13381864 1.443
-0.77499437 -0.13392703 1.4441668
-0.76417607 -0.13400412 1.4449999
-0.75434607 -0.1339732 1.4446666
-0.74434733 -0.13391139 1.4440001
-0.73475367 -0.13392144 1.4441112
-0.72515547 -0.1337277 1.4455
-0.71492076 -0.13449907 1.4471818
-0.70480084 -0.13434367 1.4486669
-0.69574124 -0.1352973 1.4490002
-0.68513572 -0.1352973 1.4490002
-0.67591339 -0.13437507 1.4490002
-0.66587293 -0.13430269 1.4482223
-0.6556409 -0.13418934 1.447
-0.64542538 -0.13407649 1.4457779
-0.63542104 -0.13400412 1.4449999
-0.62537926 -0.13438275 1.4456
-0.61479217 -0.13387185 1.4467274
-0.60457677 -0.13430367 1.4482224
-0.59586436 -0.13243839 1.4490001
-0.58553547 -0.13114728 1.449
-0.5758521 -0.13437507 1.4490002
-0.56556159 -0.13423055 1.4474444
-0.55520618 -0.13406497 1.4456668
-0.54436862 -0.13449529 1.4434001
-0.53506523 -0.13335666 1.4423751
-0.52654195 -0.13253152 1.4406667
-0.96530861 -0.12458794 1.443125
-0.95583653 -0.12415675 1.4427778
-0.94575757 -0.12409914 1.4421113
-0.93597591 -0.12408001 1.441889
-0.92576885 -0.12400328 1.4410001
-0.91613889 -0.12400329 1.4410001
-0.90587997 -0.12391722 1.4400001
-0.89580119 -0.12362161 1.4403002
-0.88475955 -0.1242317 1.4402729
-0.8742066 -0.12397361 1.4406668
-0.86442739 -0.12382739 1.4423636
-0.85476911 -0.12464245 1.4447
-0.8454268 -0.12446173 1.4463334
-0.83576214 -0.12446174 1.4463334
-0.82552552 -0.12437569 1.4453334
-0.81505156 -0.1242514 1.443889
-0.80490577 -0.12417538 1.443
-0.79526252 -0.12417538 1.443
-0.78573972 -0.12419426 1.4432223
-0.77490544 -0.12426146 1.4440001
-0.76417607 -0.12434749 1.4449999
-0.75451934 -0.12434748 1.4449999
-0.74486279 -0.12434749 1.4449999
-0.73537523 -0.12437569 1.4453334
-0.72494078 -0.12451886 1.4470001
-0.71486479 -0.12506236 1.4486252
-0.70657736 -0.1279195 1.4490001
-0.67268562 -0.1279195 1.4490001
-0.66507787 -0.12575293 1.4488335
-0.6559937 -0.12458578 1.4477777
-0.64562398 -0.12445193 1.4462223
-0.63561672 -0.12438498 1.4454445
-0.62595659 -0.124385 1.4454446
-0.61506444 -0.12446205 1.4463334
-0.60434479 -0.12457696 1.4476666
-0.59508109 -0.12466303 1.4486669
-0.58553541 -0.12469171 1.4490002
-0.57585204 -0.12469171 1.4490002
-0.56582165 -0.12461497 1.4481111
-0.55537891 -0.12426499 1.4477999
-0.54561746 -0.12541094 1.4480001
-0.53600883 -0.12765466 1.4460001
-0.52919817 -0.12756637 1.4450001
-0.96432626 -0.11402852 1.4424286
-0.95517403 -0.11443562 1.4417779
-0.94524723 -0.11440059 1.4413333
-0.93539864 -0.11437339 1.4410001
-0.92576885 -0.11437339 1.4410001
-0.91613895 -0.11437339 1.4410001
-0.90495628 -0.11437983 1.4410834
-0.8940134 -0.11441675 1.4415556
-0.88478881 -0.11446941 1.4422224
-0.87548786 -0.11451349 1.4427778
-0.86492044 -0.11460433 1.4439168
-0.85456645 -0.11472615 1.4454445
-0.84549171 -0.11480602 1.4464445
-0.83589029 -0.11481508 1.4465556
-0.82571614 -0.11474378 1.4456668
-0.81542784 -0.11465535 1.4445556
-0.80527818 -0.11458455 1.4436668
-0.79550719 -0.11456667 1.4434446
-0.78551972 -0.11428939 1.4440001
-0.7746613 -0.11493218 1.4443637
-0.76417607 -0.11469087 1.4449999
-0.75451934 -0.11469087 1.4449999
-0.74520582 -0.11474328 1.4456668
-0.73500419 -0.11454875 1.4469091
-0.72472441 -0.11529054 1.4485002
-0.71787465 -0.11662225 1.4490001
-0.65378171 -0.11499476 1.4488335
-0.64584684 -0.11530185 1.4476249
-0.63620305 -0.11483148 1.4467779
-0.62534022 -0.11453433 1.4467276
-0.61450845 -0.11519487 1.4473
-0.60453087 -0.11493756 1.4481111
-0.59557062 -0.11540163 1.4488752
-0.58634239 -0.1174292 1.4490001
-0.57520658 -0.11694503 1.4490001
-0.56570762 -0.11593058 1.4490002
-0.55756134 -0.11608429 1.4490002
-0.97138184 -0.10321008 1.442
-0.96480942 -0.10480028 1.4417778
-0.95451194 -0.10472809 1.4407779
-0.9445914 -0.10469578 1.4403335
-0.93532628 -0.10473565 1.4408889
-0.92576885 -0.1047435 1.4410001
-0.91531736 -0.10449051 1.4415456
-0.9045676 -0.10513695 1.4420002
-0.89484036 -0.10488054 1.4428889
-0.88567483 -0.10493682 1.4436668
-0.87622976 -0.10496155 1.4440001
-0.86507088 -0.10497385 1.4441668
-0.85417289 -0.10501859 1.4447777
-0.84484273 -0.10505922 1.4453334
-0.8353765 -0.10508345 1.4456668
-0.82552552 -0.10505897 1.4453334
-0.81561553 -0.10502592 1.4448888
-0.80583549 -0.10500927 1.4446666
-0.79566514 -0.10470398 1.4449
-0.78490597 -0.10535931 1.4454545
-0.77418971 -0.10508196 1.4456667
-0.76452857 -0.10508196 1.4456668
-0.75486749 -0.10508196 1.4456668
-0.74549228 -0.10512284 1.4462223
-0.73503369 -0.10523982 1.4478334
-0.72648209 -0.10747686 1.449
-0.65278095 -0.10532501 1.4490002
-0.6454953 -0.10479151 1.4480001
-0.63544744 -0.10493945 1.4477273
-0.6244396 -0.10556737 1.4479001
-0.61439669 -0.10529195 1.4485557
-0.60536325 -0.10624723 1.4490002
-0.59844655 -0.10855278 1.4490001
-0.97138184 -0.096785702 1.442
-0.96414047 -0.095099673 1.440778
-0.95479786 -0.0974534 1.4400001
-0.94345629 -0.095505841 1.4399999
-0.9351815 -0.095091596 1.4406667
-0.92563945 -0.094844513 1.4418001
-0.91496068 -0.095495015 1.4423636
-0.90448284 -0.095238023 1.4428889
-0.89490956 -0.095245607 1.443
-0.88567531 -0.095290363 1.4436668
-0.87596029 -0.095283024 1.4435556
-0.86557645 -0.095594347 1.4434001
-0.8550247 -0.095279284 1.4435
-0.84464741 -0.094984025 1.4439001
-0.83479816 -0.095356114 1.4446666
-0.82533467 -0.095377617 1.4449999
-0.815678 -0.095377617 1.4449999
-0.80468935 -0.095410235 1.4455
-0.79393828 -0.095472462 1.4464446
-0.78463358 -0.095516719 1.4471114
-0.77502292 -0.095523804 1.4472224
-0.7650578 -0.095487133 1.4466667
-0.7550416 -0.095443629 1.4460001
-0.74554938 -0.09546563 1.4463334
-0.73565012 -0.095881082 1.448182
-0.66507787 -0.094555087 1.4488335
-0.65609413 -0.095576629 1.4480001
-0.64597094 -0.095510133 1.447
-0.63565516 -0.095832415 1.4470001
-0.62493187 -0.095270604 1.4478182
-0.61498898 -0.096045129 1.4490002
-0.96703219 -0.086314745 1.4414999
-0.94276887 -0.085424386 1.4400001
-0.9347012 -0.085234426 1.4417274
-0.92448127 -0.085922912 1.4430001
-0.91440719 -0.085621387 1.4433334
-0.90469235 -0.085615039 1.4432222
-0.89490956 -0.085602351 1.443
-0.88506228 -0.085583068 1.4426666
-0.87494922 -0.08553718 1.4418889
-0.86497951 -0.085504226 1.4413334
-0.85567665 -0.08553718 1.4418889
-0.84498745 -0.085593015 1.4428334
-0.83441341 -0.08566168 1.4440001
-0.82527095 -0.085714661 1.4448888
-0.81567794 -0.085721001 1.4449999
-0.80482858 -0.085765488 1.4457501
-0.79406017 -0.085820369 1.446667
-0.78463358 -0.085846476 1.4471111
-0.77508217 -0.08586017 1.4473333
-0.7652337 -0.085839644 1.447
-0.7550416 -0.085780323 1.4460001
-0.74549234 -0.085793756 1.4462224
-0.73560405 -0.085611135 1.448091
-0.67349255 -0.085151345 1.4490001
-0.66582209 -0.085906059 1.4481112
-0.65554023 -0.085826717 1.4467778
-0.64552408 -0.085780323 1.4460001
-0.63600659 -0.085800096 1.4463334
-0.62541342 -0.08589384 1.4479166
-0.61700636 -0.086765245 1.4490001
-0.54034644 -0.082730509 1.4490001
-0.53379875 -0.084330127 1.4487503
-0.52778614 -0.085079417 1.4477501
-0.96443909 -0.075865023 1.4412222
-0.95500672 -0.075350128 1.440143
-0.94459057 -0.075818732 1.4403335
-0.93454784 -0.075915411 1.4421668
-0.92426544 -0.075994194 1.4436668
-0.91482955 -0.07601174 1.4440001
-0.9049018 -0.075988583 1.4435556
-0.89477223 -0.075947642 1.4427779
-0.88444877 -0.075889401 1.4416668
-0.8741402 -0.075830914 1.4405556
-0.86417937 -0.07740505 1.4400001
-0.85481912 -0.075824827 1.4404445
-0.8446452 -0.075919986 1.4422501
-0.83434898 -0.076006144 1.4438891
-0.82520723 -0.076052435 1.4447778
-0.81567794 -0.076064378 1.4449999
-0.80543292 -0.076391749 1.4450999
-0.79547477 -0.076082677 1.4453334
-0.78505361 -0.075810649 1.4457273
-0.77460599 -0.076141149 1.4464445
-0.76494032 -0.07614091 1.4464445
-0.7550416 -0.076117009 1.4460001
-0.74537826 -0.076117024 1.4460001
-0.7349062 -0.076200731 1.4475836
-0.72648197 -0.074123085 1.449
-0.68236899 -0.073047154 1.4490001
-0.67545187 -0.075865157 1.4488752
-0.6656177 -0.076204747 1.4476668
-0.6555903 -0.07616356 1.4468888
-0.64572215 -0.076139659 1.4464446
-0.63490671 -0.076195233 1.4475002
-0.62527257 -0.077341728 1.4488335
-0.55002981 -0.073047154 1.4490001
-0.54456484 -0.075588606 1.4482
-0.53600812 -0.076118991 1.4460002
-0.52556401 -0.075547196 1.4427501
-0.97205555 -0.067923047 1.4430001
-0.9644376 -0.06623438 1.4412224
-0.95429111 -0.06619814 1.4404447
-0.94444537 -0.066183321 1.4401112
-0.9350149 -0.066564418 1.4414001
-0.92512512 -0.066293523 1.4425
-0.91471195 -0.065986544 1.4428
-0.90434384 -0.066301256 1.4426666
-0.89428985 -0.066270381 1.4420002
-0.88397193 -0.066219315 1.4408889
-0.87620836 -0.0669799 1.4400001
-0.85215032 -0.0669799 1.4400001
-0.84435183 -0.066258766 1.44175
-0.83422011 -0.066346474 1.4436668
-0.82533467 -0.066407755 1.4449999
-0.81567794 -0.066407748 1.4449999
-0.80565006 -0.06637761 1.4443336
-0.79581368 -0.0663618 1.4440001
-0.78478098 -0.066381313 1.4444166
-0.77397752 -0.065274239 1.4458183
-0.76505727 -0.064872123 1.4466667
-0.7553463 -0.064868294 1.4465834
-0.745507 -0.064853527 1.4462501
-0.73530179 -0.065348469 1.4470001
-0.72482222 -0.064479418 1.448143
-0.71448243 -0.06334997 1.4486668
-0.70480132 -0.06334997 1.4486669
-0.69466943 -0.063983791 1.4484001
-0.68528175 -0.064949103 1.4483334
-0.67548591 -0.064936854 1.4480834
-0.66577023 -0.064932853 1.4480001
-0.65552723 -0.064552747 1.4478462
-0.64527804 -0.065314256 1.4482309
-0.63541913 -0.068727374 1.4486667
-0.5555557 -0.063698642 1.4484446
-0.54562974 -0.066450328 1.4458889
-0.53492677 -0.066672802 1.4420003
-0.52594626 -0.069409795 1.4405
-0.96398032 -0.055648677 1.4415001
-0.95471448 -0.054991212 1.4410834
-0.94448227 -0.054956693 1.4401668
-0.93480343 -0.05495435 1.4400836
-0.92550105 -0.05497418 1.4405833
-0.91579121 -0.05536953 1.4412308
-0.90470856 -0.054676358 1.4412
-0.89372092 -0.054992516 1.4410834
-0.88347703 -0.054954346 1.4400835
-0.84527427 -0.0549738 1.4405836
-0.83558553 -0.055074908 1.4432502
-0.82533461 -0.055141687 1.4449998
-0.81567794 -0.055141687 1.4449998
-0.80546373 -0.055103537 1.4440001
-0.79530865 -0.055068824 1.4430833
-0.78462172 -0.055107884 1.4441251
-0.77474272 -0.054216556 1.4461002
-0.76552719 -0.053626195 1.4475558
-0.75597006 -0.05363467 1.4477779
-0.74612302 -0.053622067 1.4474444
-0.7362237 -0.05360635 1.447
-0.72506666 -0.053615984 1.4472502
-0.7139892 -0.053631797 1.4476668
-0.70415264 -0.053619444 1.4473333
-0.69421399 -0.053598613 1.4467778
-0.68454504 -0.053598609 1.4467779
-0.6749804 -0.05360635 1.447
-0.66577029 -0.053643398 1.4480001
-0.65533155 -0.053970311 1.4489093
-0.64686334 -0.056908231 1.4490001
-0.56294096 -0.05206655 1.4490001
-0.5557192 -0.053606849 1.4470001
-0.54472935 -0.055494819 1.4427274
-0.53736317 -0.059804 1.4410001
-0.97051966 -0.042280264 1.4455001
-0.96566337 -0.044317167 1.4444286
-0.95605785 -0.043817285 1.4431112
-0.94546634 -0.043773428 1.4416668
-0.93525463 -0.043746941 1.4407779
-0.92541218 -0.04373657 1.4404445
-0.91599727 -0.043746933 1.4407779
-0.90495616 -0.043756526 1.4410834
-0.89387578 -0.043763559 1.4413334
-0.88403982 -0.043753192 1.441
-0.8749733 -0.042659257 1.4401668
-0.86738712 -0.040516078 1.4400001
-0.85134834 -0.040516078 1.4400001
-0.84481728 -0.043429255 1.4409001
-0.83526552 -0.04412052 1.4434546
-0.82533467 -0.043875627 1.4449999
-0.81567794 -0.043875635 1.4449999
-0.80565006 -0.0438549 1.4443334
-0.7958746 -0.043848395 1.4441113
-0.78509742 -0.043874893 1.4450002
-0.7749027 -0.043935869 1.447
-0.76593834 -0.043976352 1.4483334
-0.75543427 -0.043703653 1.4490002
-0.74563462 -0.044435553 1.4482858
-0.73551363 -0.043670531 1.4479091
-0.72427499 -0.044276249 1.4476001
-0.71382523 -0.043945987 1.4473335
-0.70393664 -0.043932989 1.446889
-0.69384056 -0.043906 1.4460001
-0.68417734 -0.043906 1.4460001
-0.67503202 -0.04393949 1.4471114
-0.6659739 -0.043979973 1.4484446
-0.65869856 -0.046148945 1.449
-0.55542129 -0.043913241 1.4462223
-0.54551536 -0.043765038 1.4413333
-0.96414858 -0.033816651 1.4449999
-0.95563263 -0.034651149 1.4438573
-0.94619495 -0.034166135 1.4427779
-0.93576008 -0.034137193 1.4415557
-0.92576885 -0.034124281 1.4410001
-0.91485023 -0.034135755 1.4415001
-0.90420425 -0.034157749 1.4424447
-0.89490891 -0.034170657 1.443
-0.88519835 -0.034167778 1.442889
-0.87494951 -0.034144342 1.4418889
-0.86457992 -0.0341154 1.4406667
-0.85495126 -0.034115396 1.4406668
-0.84469372 -0.034154933 1.4423333
-0.83486211 -0.034213003 1.4447778
-0.82584214 -0.034239814 1.445889
-0.81617999 -0.034239814 1.445889
-0.80565625 -0.033908069 1.4455
-0.79513931 -0.034234695 1.4456999
-0.78499985 -0.034578118 1.4466002
-0.77543867 -0.034289554 1.448
-0.7666285 -0.034713969 1.4488752
-0.75596249 -0.036895964 1.4490001
